ply
format ascii 1.0
element vertex 472
property float x
property float y
property float z
property uchar diffuse_red
property uchar diffuse_green
property uchar diffuse_blue
property int32 number_of_camera_sees_this_point
property float vsfm_cnx
property float vsfm_cny
property float vsfm_cnz
end_header
-1.3764978772 0.69855175915 1.95050625109 56 33 20 15 0.890912184708 -0.435126819034 -0.130154256543
-1.34724353074 1.40038283874 1.93588879844 49 44 41 6 0.74890421372 -0.657480588364 -0.0828357084682
-1.81956545621 0.534182357564 2.09887315569 169 137 124 6 0.875658683162 -0.252652753403 0.411568289353
-1.6162241646 0.56789952637 2.11120275418 152 114 97 6 0.848478814559 -0.292298469743 0.441186248461
-1.38921577314 0.892659568267 1.89025241057 52 34 25 3 0.683066657432 -0.443387139935 0.580368663561
-1.3302714683 1.05659417559 2.04545764088 48 29 21 6 0.752704744574 -0.587441770801 0.297233466174
-1.43141156224 1.11388662643 1.71053381483 17 13 12 2 0.830824830355 -0.541437348791 0.128746645004
-1.42006803621 1.20641906012 1.73769710241 61 45 35 5 0.641547660658 -0.536003883195 0.548740773319
-1.34941786666 0.833443463068 2.0193757386 38 23 17 23 0.866396759245 -0.498139986603 -0.0348311543878
-1.37920358562 0.911874926641 1.91329243281 14 10 7 5 0.694415823113 -0.457086694678 0.555750319981
-1.33353636219 1.06700051324 2.0378661163 57 38 31 11 0.77621824028 -0.578182317927 0.25137710853
-1.49439771233 1.13749229217 2.15294953151 73 53 46 5 0.723065393441 -0.548509902088 0.419896801749
-1.65340866713 0.644254468522 2.1777159667 185 154 136 3 0.944101876921 -0.31477105235 -0.0979327861224
-1.87532351185 0.591546104576 2.20402202906 139 104 90 5 0.88049634347 -0.277097294301 0.384633954075
-1.52010654111 0.539012668211 2.04716055917 156 148 145 6 0.824366803296 -0.286124463929 0.488418022564
-1.68297325667 0.839467831057 2.20200707796 34 31 28 5 0.820596689227 -0.408197735015 0.399994603412
-1.33207020022 0.741325544332 2.09134359936 18 14 13 4 0.737160828725 -0.413679086725 0.534287867915
-1.94711794957 0.677648122347 2.26594716714 111 87 78 4 0.896374532662 -0.307318036056 0.319481332646
-1.3554920521 0.707847247821 2.02107740916 54 33 21 13 0.873715593845 -0.414011073302 0.255374024237
-1.81247670031 0.673747057122 2.23105332868 50 42 39 3 0.841877611042 -0.323234428987 0.432159220594
-1.47644053079 1.01884863202 2.14492118873 100 74 59 4 0.755011376046 -0.51018634434 0.411907412036
-1.34371417856 0.968462662991 2.01720299061 70 47 39 6 0.712624994169 -0.501078424248 0.491005122619
-1.9572388889 0.570018660381 2.19739730449 90 77 73 3 0.866436486195 -0.259996612946 0.426250603103
-1.96103711206 0.5715932195 2.19548287283 90 77 73 5 0.889870799716 -0.258806367288 0.375698315227
-1.67964385628 0.963137041945 2.20124537859 29 18 17 7 0.823144830314 -0.456576180669 0.337595585831
-1.3035212512 1.36582649985 2.08284258606 22 19 16 4 0.567756167495 -0.641657520839 0.515682615784
-1.41848235362 0.681532425824 1.80942923785 49 31 22 25 0.900871364945 -0.429057608415 -0.0658813515551
-1.29781103029 1.34806334936 2.09593807651 13 9 8 6 0.651162622134 -0.650148606727 0.391527813453
-1.42610196556 0.710772465587 1.77203403712 50 32 25 5 0.90193687311 -0.404000291544 -0.152622545375
-1.83992713822 1.35823154281 2.25625991129 21 16 13 6 0.773346309928 -0.561239015184 0.294866499887
-1.35143197929 1.13880101174 1.96590464373 72 52 41 31 0.731322037713 -0.646244155848 -0.218028824211
-1.65356944297 1.11255051811 2.19776367118 30 26 23 4 0.753892109504 -0.515089733098 0.407834836772
-1.50594384775 0.570694430294 2.07954144643 149 114 97 2 0.77092846871 -0.30395508586 0.559714750487
-1.38291284152 1.38298454991 1.82573919326 33 22 16 9 0.660974654132 -0.615358760891 0.429471887309
-1.3153095562 1.26540837246 2.06974488134 16 11 9 18 0.750852633988 -0.654705499355 -0.0870691170726
-1.47719602472 0.585728078917 2.08989104828 140 103 85 3 0.765166532822 -0.315632488561 0.561156225318
-1.32939870923 1.42087148152 1.97985624513 25 24 22 3 0.571105443812 -0.637839391544 0.516719926693
-1.35389936155 0.648667341702 2.0422759909 42 30 25 6 0.781576375633 -0.363669909204 0.506835837517
-1.5086983154 0.624857595794 2.13733418385 116 101 96 4 0.795694570361 -0.335079899483 0.504570720178
-1.66877465333 1.42139467245 2.2106116055 32 25 22 5 0.732742145126 -0.606105046908 0.309395573449
-1.34697614047 1.1818593217 1.97224904683 66 44 34 22 0.77077343996 -0.637102720915 -0.00290297349362
-1.34679516547 1.18151698779 1.97237190844 66 44 34 21 0.730310662984 -0.661353558992 -0.171049131949
-1.36807051327 0.702436953843 1.97888258781 62 42 33 24 0.890130150366 -0.439189187606 -0.121577847077
-1.4476107564 0.736690718113 1.72484821629 60 59 58 8 0.782745721626 -0.370082498219 0.500347958713
-1.64469142742 1.03258646059 2.19129707798 74 63 58 4 0.765446793231 -0.488050766473 0.419401545154
-1.64469142742 1.03258646059 2.19129707798 74 63 58 4 0.765446793231 -0.488050766473 0.419401545154
-1.6540757115 0.963009855063 2.19535068043 37 32 29 2 0.765063620503 -0.461856626684 0.448738356919
-1.52047789924 1.36424590601 2.16829357373 81 54 42 2 0.658753245995 -0.614776244409 0.433698432325
-1.81283230511 0.533443784093 2.1091860333 155 127 113 4 0.850266172107 -0.253719184469 0.461165926758
-1.97441932195 0.536112866145 2.13234075829 161 135 123 3 0.860627641239 -0.24070489788 0.448755184118
-1.34414577228 1.25375288198 1.96761190311 46 26 15 26 0.745388485664 -0.661879525529 -0.0794449439815
-1.34716494908 0.718216989053 2.10157524796 64 59 56 3 0.743947454439 -0.400911816845 0.534613785969
-1.5171701153 0.544632258856 2.04549073171 34 21 14 3 0.741756340263 -0.286743979409 0.606279986436
-1.97279809028 0.543590956113 2.16924808516 23 13 11 3 0.866067067161 -0.245818454502 0.435317266607
-1.97279809028 0.543590956113 2.16924808516 23 13 11 3 0.866067067161 -0.245818454502 0.435317266607
-1.38514460817 1.40612702089 1.81121889396 27 22 22 2 0.758133953525 -0.639290401913 0.128610615947
-1.52524163186 0.577807896101 2.08798443936 116 103 100 2 0.794786039111 -0.305376826125 0.524461768006
-1.3690568285 1.04524746374 1.91299565029 43 34 28 3 0.83219952647 -0.550145231189 -0.0691677146011
-1.36025784028 1.00223363631 1.94960932051 24 16 12 6 0.731653818385 -0.505656996949 0.457158278367
-1.67202272108 0.573737194728 2.1286014702 115 107 105 2 0.829495312199 -0.288331115651 0.478333246584
-1.65776444156 0.646097355381 2.18396361479 72 55 47 2 0.947775925831 -0.316004631372 -0.043149361149
-1.34835362363 0.884523753166 2.01919782208 62 40 28 17 0.854960026279 -0.518199965552 -0.0226307129049
-1.56692462607 0.75927570766 2.16548372082 48 43 40 6 0.849501016179 -0.389641605545 0.355706961892
-1.64796319391 0.81747976327 2.1908673956 78 68 67 5 0.84303282766 -0.402439806043 0.356844299381
-1.54322971604 0.552466627153 2.06569421913 181 173 170 5 0.846169125795 -0.290686714665 0.446653159027
-1.41402877196 0.579594686481 2.06859411728 140 104 88 4 0.804632324536 -0.320945256668 0.499560771613
-1.32598287427 1.09891743306 2.05993482884 60 40 29 24 0.781588419501 -0.609006138216 -0.135022465231
-1.475146774 0.692753380442 2.13710977243 118 87 67 4 0.813002805743 -0.372019674397 0.447914946967
-1.33968501043 0.743522961293 2.07297914831 14 13 11 2 0.725118806303 -0.408982339746 0.554018196923
-1.54688732002 0.59523943762 2.12416200734 170 141 123 2 0.804472297043 -0.313911160773 0.504265908457
-1.53100816576 0.582576371403 2.09614033788 136 125 121 4 0.830910287761 -0.30835468607 0.46314736453
-1.70384021858 0.554852673017 2.10583516105 149 143 141 4 0.831897643482 -0.274947198391 0.482027332074
-1.47690232487 0.969578875112 2.14379114103 117 81 65 4 0.839733223532 -0.491779397773 0.230219758542
-1.50214656535 0.612847524213 2.12260833914 95 79 71 3 0.810678689132 -0.328573803622 0.484602227151
-1.50065694698 0.612226465467 2.12353161447 95 79 71 5 0.842621239907 -0.329520705124 0.425917305298
-1.34790152049 0.7382700544 2.05477184493 56 47 46 2 0.724081279823 -0.402997594511 0.559731399001
-1.34790036004 0.738634907148 2.05473925487 56 47 46 4 0.762604220266 -0.406107600756 0.503499175611
-1.49763246834 0.574329049364 2.08465060982 158 125 108 12 0.903370335704 -0.316198828727 0.289724588673
-1.30551427052 1.21482598642 2.09522845705 12 10 9 8 0.737732658486 -0.613662115928 0.281370453456
-1.45930650689 1.09301407274 2.14377397181 115 82 66 2 0.706718444828 -0.537266389161 0.46031930963
-1.36839762245 0.747555489512 1.97006137812 13 9 8 3 0.729177847599 -0.395415982608 0.558521143081
-1.41919733057 0.570348219919 1.843582072 12 8 7 3 0.695373640137 -0.291131275585 0.657037351281
-1.35809031214 0.707260099252 2.10468788595 45 40 36 11 0.875474445824 -0.405157255676 0.263423789514
-1.48972955147 1.03948100505 2.14823433086 31 29 25 6 0.781847254284 -0.514861513726 0.351614124648
-1.48755471466 0.820307488908 2.14563529428 54 46 43 4 0.795190191722 -0.427379373573 0.430138849714
-1.60338797496 0.581111728627 2.11872677939 176 145 127 2 0.815282464796 -0.299485510089 0.495603603541
-1.48225660423 0.941339459558 2.14419041421 123 90 72 8 0.822111778393 -0.480500060475 0.305371766394
-1.55738499262 0.555652639603 2.08640533013 136 106 93 2 0.803318383762 -0.290607154352 0.519833681238
-1.52543891237 0.549186124931 2.05499920545 147 137 135 3 0.808936978935 -0.289334334657 0.511768118291
-1.3520116691 0.631641549153 2.10312601339 165 154 150 3 0.77281728473 -0.358387424212 0.52374793421
-1.67254888863 0.532399488656 2.05366549351 179 152 141 4 0.849930039599 -0.264413456413 0.455746038771
-1.37112167805 0.553051364218 2.02451011576 74 63 61 3 0.770121946838 -0.308348749694 0.558420303679
-1.61499850335 0.882089313577 2.17934724945 108 82 71 3 0.808001860365 -0.434011724494 0.398455539111
-1.69900301571 0.728220706283 2.20024502197 110 77 65 5 0.873982022665 -0.357637415674 0.329015049761
-1.37593985283 0.938620274032 1.91926428139 12 7 5 4 0.725496725478 -0.472869850613 0.500048603339
-1.51855820527 0.62222290059 2.13793681363 139 133 129 8 0.884680080514 -0.334369076232 0.324866858886
-1.71238100902 0.54804959519 2.12626071673 180 143 126 2 0.838159583908 -0.27165425455 0.47296139154
-1.4067504573 0.747228462106 1.84654451475 23 20 20 5 0.781926543969 -0.386695484968 0.488935048592
-1.37100787894 0.69642846983 1.97300900228 47 28 19 7 0.894265262873 -0.438330455679 0.0903108589451
-1.37425061779 0.706879617185 1.95523547493 77 51 37 30 0.845069576135 -0.457829557701 -0.276133133807
-1.32863014695 0.815459948359 2.09088577203 12 8 7 5 0.733018938201 -0.447963405971 0.51187110013
-1.35140610951 0.601848763754 2.062165036 17 12 12 2 0.747301321285 -0.338160461689 0.572003703971
-1.40798309215 0.739871212047 1.85271679029 61 46 36 5 0.751802523805 -0.377381236903 0.540718380707
-1.5991495072 0.540778059424 2.05626898276 184 155 143 4 0.805998305509 -0.27685421468 0.523181111405
-1.72891701962 0.599715532607 2.16889832671 148 112 96 4 0.88160513359 -0.295761614455 0.367828024819
-1.34009431048 0.969410926577 1.9419534319 20 17 14 13 0.819968778971 -0.52106138008 0.236951977627
-1.39982124842 0.61178810128 2.0855758986 109 84 78 2 0.763002921745 -0.338647165749 0.550585723152
-1.39982124842 0.61178810128 2.0855758986 109 84 78 2 0.763002921745 -0.338647165749 0.550585723152
-1.33719646356 0.785988823095 2.09478789219 98 90 88 4 0.777103193351 -0.436042388083 0.453847620549
-1.48447677202 0.741287511436 2.14135147177 70 60 59 2 0.774135157664 -0.392251594744 0.496843480475
-1.48406452835 0.741212693304 2.14161945875 70 60 59 3 0.79131581382 -0.392611885815 0.468695199372
-1.39123670263 0.703513957821 1.92480916254 44 25 18 4 0.750423608593 -0.369032614894 0.548342353655
-1.44889978023 0.535724030045 2.00956337765 180 142 125 6 0.837905001885 -0.291807396365 0.461263104143
-1.41511328316 0.74746469999 1.82574991745 19 15 14 3 0.734588885273 -0.376378547071 0.564551467041
-1.37442013965 0.545679748515 2.02776266016 135 122 121 2 0.752146752881 -0.303331603868 0.585034358158
-1.43929942383 0.540212443001 2.01891310666 107 85 77 3 0.745317637051 -0.291298493089 0.599705600962
-1.65618848444 0.606400259261 2.15866471585 99 79 73 4 0.858075963079 -0.307028449582 0.411629897764
-1.65618848444 0.606400259261 2.15866471585 99 79 73 4 0.858075963079 -0.307028449582 0.411629897764
-1.70922558814 0.533174492975 2.08800728165 160 133 122 2 0.83174097014 -0.262743401538 0.489053027329
-1.59910906526 0.540465593002 2.06670642675 182 156 146 3 0.825170885051 -0.277165737166 0.492211503934
-1.58234563226 0.544550775102 2.06933165416 160 129 115 5 0.853517058722 -0.282163019134 0.438055545683
-1.45106184277 0.536993677416 2.01885918824 162 129 114 4 0.768651265852 -0.289334128132 0.570491887586
-1.36776757349 0.711520430777 1.9765068636 53 33 24 9 0.874235038313 -0.403987388274 0.269271773309
-1.44549678805 0.596372777687 2.09437837493 144 111 96 4 0.813762429307 -0.32692834817 0.48052946196
-1.44738413547 0.52474594224 1.95918343773 154 121 107 8 0.859104776635 -0.285955974288 0.424462205069
-1.35751255067 0.833876796572 1.99486193839 44 26 19 16 0.870170943505 -0.492163790991 0.0240277322311
-1.39707916063 0.61650705077 1.89006948256 50 31 20 33 0.83804054419 -0.424627283231 -0.342607233766
-1.52451053918 0.562778213123 2.07713640214 39 30 26 4 0.828592510297 -0.298268391397 0.473783092326
-1.44896973339 0.517337519387 1.91683932398 137 107 99 3 0.766176869818 -0.27163522639 0.582397894862
-1.31303393249 1.12218273461 2.10166895834 74 65 63 5 0.710799194488 -0.575437701832 0.404519414152
-1.37580645398 0.641987943695 2.10235827694 61 53 51 2 0.756799392002 -0.358728271924 0.546414409755
-1.49912514616 0.949382313229 2.14946893011 83 60 54 2 0.743358332797 -0.4776271778 0.468284815138
-1.56056886778 0.549044261947 2.07014967141 185 172 167 3 0.782850592521 -0.285921058843 0.552624735151
-1.73019048574 0.54166392722 2.10125969592 170 141 131 5 0.878119085078 -0.265026007151 0.398331630624
-1.74276292869 0.554389723339 2.11603631703 183 147 128 2 0.839882784386 -0.270501649537 0.470558993209
-1.36607207193 0.631150103612 2.00427859835 53 33 24 2 0.733146294719 -0.344109433179 0.586587767122
-1.33449468381 1.09823953465 2.03123559458 52 32 21 19 0.748117659338 -0.601323113638 -0.280589523666
-1.37050180788 0.925393189997 1.9372166099 11 6 1 3 0.71811274733 -0.469992585319 0.513245605794
-1.31885604535 1.05209225012 2.08252127532 24 20 19 7 0.746903528818 -0.549639118446 0.374208442066
-1.38910403949 0.628746146042 1.93450170592 67 47 38 7 0.823520225212 -0.343452963601 0.451502492198
-1.59378874493 0.858203719945 2.17355827313 150 114 96 3 0.807553284308 -0.427536937256 0.406287903199
-1.32856686765 1.04834774577 2.05135125449 56 38 28 9 0.786091213518 -0.579950576509 0.213817522284
-1.38881982147 0.794317865059 2.11599416257 29 24 21 4 0.774275743114 -0.430765530684 0.463614205132
-1.5268371223 0.549947617077 2.06620139716 158 149 146 3 0.774913412311 -0.289988494226 0.561618978167
-1.61925246607 0.871216167812 2.18093860552 49 33 30 17 0.137995284303 -0.539053146241 0.8308904904
-1.42689162361 0.589620746934 1.81774749827 27 23 22 3 0.730319645028 -0.299616494163 0.613891824764
-1.42689162361 0.589620746934 1.81774749827 27 23 22 3 0.730319645028 -0.299616494163 0.613891824764
-1.37202227419 0.844450441029 2.11643723943 85 61 49 4 0.769380129582 -0.456850156772 0.44647749155
-1.38002362155 0.70424677573 1.93710677839 60 41 34 27 0.865004913286 -0.455906618226 -0.209560624758
-1.32939405962 0.798975224039 2.08190667153 27 25 23 4 0.724503765639 -0.439075582208 0.531325631494
-1.35067953542 0.697192377781 2.03454764136 47 29 19 5 0.858985203275 -0.410400615169 0.306130291908
-1.52057896304 0.687543495567 2.1488435872 43 35 33 3 0.808260109253 -0.363111558012 0.463535966487
-1.51458236344 0.630434550335 2.14184682589 136 123 120 3 0.814381834437 -0.336785686572 0.472607267251
-1.56016878066 0.823350359495 2.16297374593 91 64 55 4 0.836465947901 -0.419066457434 0.353140230298
-1.34797226676 0.757179000743 2.10443748991 36 28 25 5 0.799378449099 -0.423266074759 0.426426928177
-1.41324323131 0.75304282094 1.79206485224 19 14 12 7 0.907571917031 -0.418725238354 -0.031343104206
-1.32621485597 1.0948437053 2.05892466872 52 34 24 6 0.822362710299 -0.56433340803 -0.0724387830602
-1.42188992084 0.863329123594 1.79593680888 60 41 31 3 0.637705509846 -0.41232547533 0.650629990936
-1.40513734128 0.753154469225 1.82337113881 18 14 13 6 0.73311558977 -0.43089097353 -0.526188655301
-1.33922001883 0.695610688292 2.08133263207 28 24 23 6 0.796580869912 -0.394214599104 0.458316230941
-1.39557300636 1.41157813106 1.78221107267 26 21 18 2 0.581688658042 -0.60001496385 0.549199734397
-1.42863798441 0.904822733821 1.73340344365 17 13 12 4 0.83171896323 -0.495543225352 -0.250360695821
-1.67561818467 0.812052902683 2.19411646622 80 70 68 9 0.860784277296 -0.399709642475 0.315091462392
-1.70891523924 1.25286899401 2.20670421059 135 98 80 3 0.845366966012 -0.532089407962 -0.0472816530016
-1.38807391657 1.27600927064 1.81032255133 50 30 21 4 0.740886592097 -0.639318279223 -0.20581349689
-1.33859077814 0.842860633915 2.0518758761 43 30 24 8 0.854280501269 -0.468394421396 -0.225414043832
-1.40091255699 1.108067645 1.77461115838 53 33 24 2 0.679580763233 -0.579063371888 -0.450394935119
-1.85566901614 1.3842231252 2.2597966732 32 26 21 3 0.747131344998 -0.56893105959 0.343674559365
-1.6799309828 1.18941096465 2.20623359822 108 74 57 4 0.782476044129 -0.535236999352 0.318202128981
-1.38387705645 0.919167877529 1.88203509223 19 17 14 30 0.796870229406 -0.560853287079 -0.224591691429
-1.31914857416 1.17044163279 2.06377731325 61 41 30 4 0.622250573466 -0.579600979125 0.526181459972
-1.4104250003 1.10723562557 1.78876994966 50 32 22 3 0.600787622684 -0.502582895866 0.621662822769
-1.42445036615 0.793813839969 1.75127181178 29 25 24 5 0.901881429228 -0.428623702302 0.0537736872308
-1.40130444541 1.20476614062 1.80043485033 58 36 25 7 0.697212435744 -0.55840604903 0.449530314718
-1.86457054032 1.24889369078 2.25864050897 115 79 62 7 0.832117799678 -0.52027787269 0.192070046202
-1.34510182654 1.04743305211 1.99994372888 59 39 30 3 0.666274109284 -0.524374139049 0.530198617119
-1.32981783653 0.86176694106 2.09691770308 38 32 29 6 0.770789690782 -0.474120692074 0.425550022831
-1.33119096579 1.41170376088 1.98925126971 16 13 11 32 0.656860350217 -0.731747745054 -0.181878305253
-1.39515503206 0.933367530805 1.85773315738 11 10 6 3 0.708624386936 -0.458162513635 0.536599095544
-1.63325168898 0.886651101438 2.18802265885 49 41 39 7 0.843679066471 -0.434399361381 0.315440687975
-1.3803447662 0.747329997487 2.11095331014 37 30 29 6 0.847281680507 -0.417438134601 0.328419179795
-1.40282991057 0.692678361455 1.86323437468 55 35 24 24 0.898473963102 -0.431377732376 -0.0815952795062
-1.99242726596 1.4116217409 2.29973171541 34 27 26 4 0.782566322619 -0.553821472122 0.284379548699
-1.4114219837 1.03192941505 1.79389082569 65 47 37 3 0.685577935845 -0.484594185131 0.543278353718
-1.55753924133 1.02074630185 2.16811135278 125 88 68 8 0.79933555045 -0.498373126154 0.335688702394
-1.47265201166 1.29856518895 2.15015764594 90 67 58 7 0.75227276599 -0.606830429307 0.256597964952
-1.30886083963 1.40539917365 2.05099126146 18 14 13 8 0.702948272791 -0.668649444261 0.242428642016
-1.42020025007 0.82226619253 1.7596075843 28 19 13 4 0.830407881918 -0.471274836803 -0.297191483466
-1.34969130053 0.743834331227 2.03288939682 12 9 11 6 0.785648227157 -0.411164949011 0.46227724135
-1.37192107894 1.01892534916 1.90731243712 29 21 19 7 0.8251746174 -0.539597764714 -0.167096089463
-1.40986017955 1.16330881264 1.77424798484 75 53 42 7 0.707411155004 -0.540572172645 0.455358302809
-1.42349566861 1.00739731691 1.75903697316 55 35 24 8 0.747360328745 -0.486461470046 0.452556932527
-1.33406356928 0.954996113316 2.06121270944 51 34 25 27 0.707673467846 -0.56000948905 -0.430798833658
-1.43903627122 0.827781478863 1.74033342938 21 19 18 3 0.675341940616 -0.392241758497 0.624547569154
-1.31899834164 1.2522096333 2.05430495442 49 31 23 5 0.746658339297 -0.654738603887 0.11755290272
-1.35714394299 1.201355364 1.93297881018 57 39 29 25 0.752075170722 -0.642557313084 -0.146639138654
-1.41760970088 0.5482855414 1.82057019868 30 25 22 5 0.89250718076 -0.321634409009 -0.316199682533
-1.34383409248 0.727092349638 2.06908844459 11 8 5 3 0.720870521231 -0.400969213821 0.565304679962
-1.89523935429 0.695533568832 2.25335142619 141 105 85 2 0.865684370331 -0.322725880452 0.382672937443
-1.74397996171 1.16508536943 2.2251653241 136 94 71 3 0.761022923051 -0.519659572355 0.388327232435
-1.64589384729 0.62557063508 2.17034421514 147 120 109 3 0.868127191318 -0.320351389228 0.379117616466
-1.86899239703 0.570027684608 2.17226262817 162 141 130 4 0.96630783104 -0.257275641675 -0.00764328932309
-1.30973122244 1.30609101855 2.08585950564 23 17 17 2 0.754073577158 -0.64208203812 -0.138216122634
-1.36587676259 0.906581853188 1.93598120346 18 15 14 3 0.873970529672 -0.485978901532 -0.000143286717699
-1.4015673244 1.32935790569 1.74661093713 37 22 16 9 0.679790070887 -0.662718321173 -0.314149464914
-1.37157375608 0.992767098238 1.90890185619 14 10 7 3 0.678876040526 -0.487775504257 0.548819076788
-1.40410316938 0.577777831241 1.88625153958 14 11 10 4 0.837728762389 -0.315950269615 0.445405374684
-1.40210027048 1.20380954219 1.76145215815 67 47 36 19 0.739163503996 -0.633031185339 -0.230019200827
-1.33416307095 0.898060987072 2.0654212667 27 13 5 7 0.83653697457 -0.494349166976 -0.236272705335
-1.31682453741 1.2086176714 2.07409592821 15 11 10 22 0.756470018342 -0.639923503906 -0.135096337842
-1.42609511096 0.571497840737 1.82136820814 13 9 8 3 0.758838488985 -0.294062535617 0.581112186055
-1.42235449918 1.38463200623 1.68906286572 57 57 55 3 0.635906233201 -0.587123498433 0.500908434911
-1.42129590443 0.763136136602 1.78405128403 13 12 10 9 0.837144895537 -0.398896790417 0.374258967122
-1.48104997425 1.38388944601 2.15755342173 26 23 19 3 0.673989611356 -0.625646062579 0.39281676156
-1.63930548655 0.938549259722 2.18860190081 36 32 29 6 0.838145629421 -0.45245485919 0.304625186546
-1.33819399157 0.694769849404 2.08188085073 27 23 22 7 0.85077527774 -0.397684347815 0.343552887179
-1.96451857354 0.555683299614 2.17317224102 182 175 171 3 0.888664306589 -0.250131987015 0.384330247659
-1.36097100873 0.668122979758 1.99941440966 61 41 31 3 0.912266553412 -0.38220969507 -0.147259921639
-1.34936253857 1.34434926107 2.11720505961 100 67 53 8 0.706251251429 -0.64215149406 0.298078225525
-1.80152592696 0.996645782158 2.23252466852 133 96 78 6 0.869299539726 -0.446354042069 0.212335534852
-1.49012093625 1.27939766266 2.15459575366 69 62 60 5 0.741180231258 -0.594776742147 0.311275588173
-1.98769058117 1.29490898837 2.2925300476 34 24 24 8 0.838899034636 -0.51369487871 0.179905478725
-1.3266109273 1.15459241291 2.0514490989 46 27 20 2 0.8021242458 -0.583419580033 -0.12735104214
-1.66671415748 1.25514684266 2.20436642802 34 25 23 4 0.731591363961 -0.559408348896 0.38966187312
-1.78983229593 0.569624103588 2.15978158987 160 127 112 3 0.866348676452 -0.274226479692 0.417420421931
-1.4067958272 0.708644192778 2.11747321492 153 113 91 8 0.881106527215 -0.395976448133 0.258561289103
-1.43686484261 0.912496771083 1.72179690761 12 11 11 3 0.867467217137 -0.46072723713 0.187699334465
-1.39515503206 0.933367530805 1.85773315738 11 10 6 3 0.708624386936 -0.458162513635 0.536599095544
-1.42714936657 1.26804797076 1.70394616892 12 11 9 6 0.705082351245 -0.567559268265 0.425129809552
-1.36742333897 1.2255706914 1.89292771395 58 38 29 26 0.687262944993 -0.676716351594 -0.264054206415
-1.35408635567 1.3013484127 1.93154009426 60 39 27 17 0.751688176916 -0.658389331045 0.0385794433884
-1.35696718226 1.30443015863 1.92935525498 60 39 27 6 0.714094867774 -0.62736872463 0.310607474437
-1.40825848045 1.02988226056 1.7963772735 65 47 37 11 0.806863990916 -0.516069981149 0.287475694137
-1.37646559668 1.11412376731 1.88184681885 45 27 17 24 0.799062203725 -0.601084342967 0.0140430487698
-1.55155896557 1.43413373443 2.17945604407 15 10 8 2 0.683692206257 -0.628472591515 0.370927444142
-1.33984194296 0.763103417533 2.06364616858 16 10 10 2 0.766992394857 -0.418736266538 -0.486191942875
-1.4429306334 0.60770085599 1.76056096162 11 11 11 8 0.834123662116 -0.315563650065 0.452390648727
-1.40365688962 1.09973854576 1.80801169492 75 52 40 5 0.685962752666 -0.513306687189 0.515724099536
-1.4259645226 0.784793791195 1.74309147857 18 13 10 6 0.885402164563 -0.434868473456 -0.164171915325
-2.00003626628 1.09713817866 2.2893695028 28 21 22 5 0.852838136282 -0.453312856078 0.259180569909
-1.38634919773 1.11351038582 1.85748551932 60 41 31 6 0.702646074343 -0.529913505656 0.474847523668
-1.3823735753 1.11220511812 1.8596923431 60 41 31 26 0.774981462271 -0.618985870511 -0.127515588239
-1.39848092643 0.940004212356 1.84152062608 15 11 11 9 0.775725345052 -0.471768512612 0.419147539122
-1.38527284356 0.659477254644 1.92551764028 49 31 21 15 0.885924178682 -0.453952380422 -0.0952133705723
-1.92791878465 0.681590505591 2.26110135748 48 35 34 7 0.930747689618 -0.306372005277 0.199611955184
-1.40300142382 0.841113744414 1.81631099743 47 28 21 3 0.800171667274 -0.464833374695 -0.379018781411
-1.33737274389 1.34661143983 1.97775341346 49 29 20 22 0.695878515534 -0.684324161639 -0.217838319438
-1.49102234551 0.553878446322 2.06016815436 148 116 99 3 0.778215499545 -0.296418460792 0.553639532881
-1.33105651508 1.14499640122 2.03976148521 66 44 35 2 0.774721514217 -0.585770464761 -0.238074648007
-1.68138468732 0.811632139862 2.19971830323 36 30 28 4 0.824315273767 -0.397256449415 0.403350521051
-1.310155885 1.38168076476 2.05677382008 29 19 14 5 0.671485303964 -0.652837552695 0.350586104047
-1.33713803056 0.900108559112 2.06621762352 27 16 12 2 0.747675247671 -0.501377932705 -0.435432994406
-1.34466802004 0.625136653414 2.09813651542 149 140 135 10 0.900581697068 -0.366654085982 0.233489588929
-1.3949830248 0.850096377315 1.85701220223 58 35 23 27 0.836234734861 -0.514500244176 -0.189739207741
-1.3852948011 1.14341183746 1.8331953293 49 29 20 5 0.73677118541 -0.592616744441 -0.325535888278
-1.3358177189 1.06159484606 2.04160580554 46 28 18 2 0.680721219555 -0.53734567562 0.497873725096
-1.33436214099 0.810362283874 2.06502175057 12 11 6 17 0.87715926415 -0.473796692654 0.0781557377725
-1.35759699834 1.06613917018 1.8839340279 19 14 12 22 0.808201598089 -0.586895991854 -0.0486134918764
-1.34580654908 1.21723041334 1.97166499423 47 27 18 22 0.758763612918 -0.646444916377 -0.0799171433572
-1.34570580045 1.21701246613 1.97176885772 47 27 18 26 0.735493417398 -0.658580156462 -0.159127654662
-1.38008573389 0.704295643559 1.93696043348 60 41 34 20 0.906583886609 -0.421456117878 -0.0219179662293
-1.43425655974 0.711520335711 1.77810166555 56 40 31 2 0.709133332764 -0.349490009481 0.612361535072
-1.34977237349 0.938908535069 2.0038629184 54 35 28 21 0.802882098006 -0.549414420438 -0.231352828633
-1.98111962988 0.617937050826 2.26004778551 59 57 56 4 0.906068365871 -0.277269884678 0.319627169401
-1.33142943109 1.1025742979 2.04419827119 51 31 22 2 0.672339135842 -0.553025832333 0.492059463061
-1.953709231 0.640951592167 2.26396335583 167 156 154 5 0.91075151113 -0.28932854669 0.294653486395
-1.40728514057 1.03444940988 1.78605733983 53 35 25 11 0.833356467072 -0.550533575248 0.049292812
-1.79935891115 1.16363248098 2.23880798203 94 69 59 3 0.789689653152 -0.507982300462 0.344011967991
-1.93395330336 0.647108115002 2.26175355854 41 33 30 6 0.916621388311 -0.293431238625 0.271483588251
-1.40009223855 1.39549092603 1.77238285443 33 21 18 3 0.600919994505 -0.59464407343 0.534128810437
-1.38510555706 0.70470845196 1.9138788893 66 46 37 4 0.847842991525 -0.422322931526 -0.320633128715
-1.4043494546 0.557426500735 2.04287681149 133 122 118 2 0.781193930616 -0.30806472399 0.542984501253
-1.31915955594 1.06157671313 2.0871191331 28 24 23 2 0.683927628956 -0.546661310284 0.483119457474
-1.34885150174 0.589146026752 2.05946303293 23 17 14 12 0.924219185534 -0.353825783986 0.143618284621
-1.80027731837 0.673133772609 2.22625532869 56 41 35 5 0.888291317166 -0.320710817795 0.328759953761
-1.41535735895 1.39423249788 1.71301690724 20 12 12 7 0.654261771938 -0.597224815742 0.463965573338
-1.35923841391 0.936800408461 1.9807870818 37 27 21 2 0.698241903137 -0.478017914765 0.532876268817
-1.42355371331 1.14649506795 1.74202724977 59 39 29 3 0.640031169433 -0.511800074268 0.573080087015
-1.65105883398 1.14121684571 2.19727259587 33 29 22 4 0.77467544468 -0.523267366449 0.355062274282
-1.89994563378 1.26882810365 2.26678567586 122 81 63 4 0.80465037104 -0.523833334613 0.279528921462
-1.37924691808 0.649750947242 1.94763210097 51 31 20 2 0.6550791824 -0.384270096851 -0.650544200998
-1.32824950454 1.21758271471 2.02335598424 56 34 23 12 0.759210728913 -0.643593865492 0.0968813986518
-1.33353694016 1.23625692965 2.0142162356 65 43 32 3 0.683649037844 -0.599476362335 0.416235611231
-1.39617495132 1.4376327008 1.73151879467 19 18 16 2 0.699829618016 -0.672398099702 -0.241079450109
-1.33161446051 1.22879596159 2.01024691923 52 30 19 15 0.768235094051 -0.62370069419 0.144264633002
-1.43387140292 0.722785834216 1.77447966572 39 25 18 8 0.818374459544 -0.370278111949 0.439496716458
-1.42256572031 0.788259298086 1.79083498098 13 12 10 3 0.699192814723 -0.384654661416 0.602636042144
-1.78125407374 0.548663981522 2.12492556455 178 150 135 4 0.874560540904 -0.263675613122 0.406963181797
-1.81403848802 1.0519726661 2.23891818668 42 35 32 3 0.811250157155 -0.467978673061 0.350526951998
-1.93878185275 1.09924985286 2.2719831516 146 106 86 4 0.834897290799 -0.464226580014 0.295702885048
-1.51997907949 1.32760896798 2.16628778566 78 51 40 2 0.694964365166 -0.603583012349 0.390783927961
-1.81308274286 1.15930215557 2.24378581863 34 31 29 3 0.793265391701 -0.504557898891 0.340809837001
-1.37896402831 0.590216222221 1.95932473613 60 42 35 30 0.850415999019 -0.395342224176 -0.347127000384
-1.38163747456 0.632903121192 2.11041800617 177 166 163 3 0.816810941936 -0.356096220275 0.453889157218
-1.3802496785 1.09058368957 1.86032601928 60 41 34 3 0.796478297005 -0.562683581757 -0.221380914311
-1.33446026247 1.17757642709 2.01587362598 49 27 17 2 0.794591060614 -0.607042794751 0.0111396469385
-1.33920527506 1.05797456338 1.92762915959 13 9 7 8 0.752514766723 -0.538483434372 0.379153157406
-1.37575883099 0.539056973611 2.01770307899 133 123 121 6 0.950268051368 -0.311251475875 0.0106371666619
-1.70833995557 0.720973829882 2.20584355324 115 81 62 7 0.906438532389 -0.351021503753 0.234846952085
-1.40274883058 0.758371007832 1.85614763992 30 25 23 9 0.767970034806 -0.441961000193 -0.463564989994
-1.40830174169 1.03759141328 1.77381548939 53 33 24 11 0.815610001753 -0.567729953653 -0.111637918139
-1.8191708079 1.36962868603 2.26150354525 19 15 14 16 0.109242439936 -0.65766662591 0.745346026005
-1.39373014535 0.576265514586 1.90422428859 21 13 8 2 0.888989127561 -0.394985267661 -0.231700171362
-1.3409932783 1.21436367852 1.9791994224 49 29 20 2 0.66036819033 -0.582403855645 0.474045991577
-1.6268333998 0.941307873744 2.1880043239 97 70 64 2 0.775331325746 -0.460833625325 0.431849169371
-1.37345152347 0.955391169667 1.91326551209 12 8 5 15 0.845424587846 -0.528664653202 -0.075966773794
-1.34417806476 1.40689150685 1.94089329489 28 24 22 4 0.751945220102 -0.658749960091 -0.025037492812
-1.41233895462 1.10055186264 1.77874299919 59 41 31 4 0.673806032085 -0.510490109583 0.534214637711
-1.37936896016 0.616748538846 2.09304183763 76 62 59 8 0.837500792523 -0.354703510738 0.415665541022
-1.37510047201 0.688732922998 1.95767268536 66 44 33 9 0.85891885239 -0.425040234976 -0.285655743266
-1.41430741374 0.703534312815 1.84360074524 55 35 24 3 0.76816597676 -0.361287919992 0.528575511178
-1.41582433939 0.915133547194 1.76479546974 64 44 35 6 0.844610040971 -0.495965859556 -0.201622778591
-1.93556329234 0.545060684016 2.15153744651 180 153 140 2 0.882995726513 -0.249094267644 0.397832367696
-1.31722135805 0.958447063469 2.10009945396 27 23 22 3 0.692229981235 -0.511001241383 0.509603163633
-1.41724251723 0.684671847617 1.80067389498 78 49 38 29 0.880363949416 -0.441468483258 -0.173392314878
-1.38760312602 0.534761854769 1.91806316223 20 15 12 3 0.94516790472 -0.309865302203 -0.103155835405
-1.45760126712 1.23032930536 2.14426839628 122 90 71 5 0.760175863474 -0.586396602992 0.279770764362
-1.44375046867 0.803445972029 1.72986951984 14 10 9 2 0.708459377016 -0.384494320615 0.591818746351
-1.40907498908 0.657411648976 1.8690122185 55 33 22 2 0.748743913562 -0.340517394142 0.568709465535
-1.75316551906 1.24535089559 2.22499532238 131 90 68 5 0.814653655125 -0.536935518256 0.219179541532
-1.76550271407 0.911109808075 2.2219345428 107 73 56 2 0.836491618667 -0.423414189118 0.34785369964
-1.41161385176 1.28498151038 1.74966601558 43 26 19 2 0.633180211637 -0.561914412443 0.532292224893
-1.33373472274 1.17441791628 2.01813504783 51 31 20 4 0.773059861334 -0.614712293958 0.156547904655
-1.4243965792 0.913325725598 1.73617024798 21 17 16 4 0.864075901937 -0.501246600545 -0.0460942635663
-1.35758420948 1.29341474719 1.91451497586 56 38 28 2 0.735556337516 -0.628431012513 -0.253044140124
-1.34978500633 0.795914976147 2.01006349678 24 23 21 11 0.860465504778 -0.448804343421 0.241192405382
-1.37918939259 0.752837955583 1.96209985924 10 9 7 2 0.78331172386 -0.398903537898 0.47675854551
-1.43335645288 1.07056912481 1.71440241809 11 9 8 11 0.79844263447 -0.52674556446 0.291596415927
-1.33321926259 1.17449212449 2.02596359924 50 28 17 25 0.678135704326 -0.645507841172 -0.351356789465
-1.80158093985 1.14540533887 2.2387689757 38 31 28 5 0.824843403976 -0.499170156982 0.265447760012
-1.91931533055 0.551400060903 2.1577941068 152 123 109 5 0.915525371138 -0.251134535634 0.314236757579
-1.34135499292 0.59437893925 2.07164177649 160 148 145 3 0.938801982901 -0.344191963071 0.0135177460607
-1.36518506805 0.63055856405 2.10555361852 163 154 152 2 0.933788142532 -0.357779722426 -0.00577711762603
-1.89550319635 1.29098498958 2.27269984013 127 89 70 3 0.80601523433 -0.529472199885 0.264572545016
-1.42172640764 0.977592944845 1.72612153736 14 10 9 16 0.755437469892 -0.553710863732 -0.350312015877
-1.40001045293 1.42723920069 1.71234199812 27 23 22 13 0.702169760351 -0.684173746733 -0.197139321114
-1.38131798244 0.788368633785 1.90372580448 23 21 22 4 0.89080688282 -0.437175138762 -0.123858772681
-1.46183870787 1.12711432375 2.14079418559 128 84 68 7 -0.30661265353 -0.503103468962 0.808007165942
-1.42820246196 0.629182145988 2.12204164619 167 138 118 4 0.850514585317 -0.349107102088 0.393381712126
-1.99623534893 1.18765735515 2.28980011499 37 29 27 8 0.868449752147 -0.476476428317 0.136986281261
-1.32617908203 0.755199162617 2.09323972013 19 18 16 5 0.812604359493 -0.424944587957 0.398868715366
-1.38954636851 0.646600828469 1.91131661808 52 32 23 4 0.887648723941 -0.39865485159 -0.230551625866
-1.30222972952 1.30465409029 2.09583854353 13 7 7 7 0.713485009567 -0.638548720258 0.28843486783
-1.34629645336 1.23458108996 1.96370055141 64 42 32 26 0.714916144143 -0.656373588822 -0.240974311369
-1.41453865563 0.870133280773 1.81130733848 48 32 24 3 0.747991374742 -0.428824818285 0.506574948586
-1.85336257455 1.25925467028 2.25329101665 123 85 64 6 0.827100925251 -0.523303301604 0.205079774674
-1.78033596873 0.544664576937 2.12734481139 153 126 115 5 0.909300511123 -0.261031041445 0.324091616481
-1.3534353373 0.708605931159 2.02855494079 59 39 28 14 0.893650097512 -0.419320318811 -0.159874868098
-1.35400039664 0.988026813915 1.97637811755 12 9 6 10 0.810110245081 -0.51705690291 0.276357648653
-1.63709512994 0.56256274385 2.11151723762 189 159 148 6 0.902334819842 -0.286158554099 0.322343225175
-1.77108858938 0.655359545941 2.21587717076 119 80 62 9 0.934054539359 -0.313785668541 0.170530559491
-1.39630006667 0.785742675369 1.8673269665 19 15 14 3 0.904427091221 -0.425021739389 0.0369886159861
-1.332861364 1.39982345126 2.11604857195 105 85 73 7 0.710982229829 -0.661989136058 0.23722279108
-1.41186865113 0.862162912604 1.78194145583 61 42 34 2 0.758102199251 -0.494377409713 -0.425290526883
-1.43520436609 0.622017925596 1.78338406076 18 14 13 4 0.801608548376 -0.318586331917 0.505891771317
-1.4920478362 1.42055825159 2.15977666818 28 23 20 10 0.755017904887 -0.636577001639 0.157218587592
-1.34293752706 1.21087018067 1.96093329859 46 30 20 6 0.749204704726 -0.592739142639 0.295554765147
-1.46410909019 1.05815722991 2.13881941377 116 84 69 3 0.854958494418 -0.518256896254 -0.0213485902899
-1.32940511328 0.810786573543 2.09858627341 44 36 34 6 0.837275219218 -0.453123048111 0.306022402047
-1.61739945797 0.584804762024 2.12831447908 175 143 128 4 0.894739957681 -0.299714387539 0.33107656823
-1.36358948804 1.11102112823 1.9361552549 50 31 24 2 0.695222542526 -0.539128675727 0.47540076501
-1.3840916557 0.579542612618 2.05295354404 142 133 128 3 0.813302064226 -0.324108177905 0.483211797601
-1.38583282676 1.18511696354 1.84027296411 45 28 18 15 0.787055775786 -0.606330226073 0.113608374482
-1.67535946335 0.603736471106 2.16521260688 129 111 108 2 0.8751384291 -0.302978283984 0.377275614567
-1.33975470191 0.940154707533 2.03928233004 46 28 18 12 0.832085277709 -0.548959572761 -0.0792305376384
-1.33810271229 1.11219130314 2.00631733147 55 35 26 8 0.766477952744 -0.564627855518 0.306115881212
-1.34326011696 0.959001609939 1.9593967686 98 86 82 4 0.738086866351 -0.491978928457 0.461719083075
-1.32749001632 1.23777372155 2.02396865321 55 33 22 10 0.758610412175 -0.633046826273 0.154149142991
-1.69176015566 0.987030188243 2.20508655775 118 79 62 5 0.846211741762 -0.46028768591 0.268441677657
-1.39310902747 1.370084465 1.7831332406 51 33 25 4 0.656106130245 -0.599837044826 0.457952252433
-1.3394650621 1.31739387026 1.97565393617 55 36 25 29 0.672596978167 -0.691748847207 -0.262862772847
-1.41205504258 0.767130679482 1.79162093337 20 16 13 5 0.892310644246 -0.427001606688 -0.146462766773
-1.43589505007 0.812392863379 1.74111604993 14 9 9 2 0.725493010011 -0.391560282863 0.565986251873
-1.34881097024 1.02808983905 2.11074947378 123 88 72 8 0.797242433338 -0.539569169501 0.270683604616
-1.33073179837 0.937901623378 2.10292729438 31 26 23 5 0.777983064303 -0.503675927069 0.375570116155
-1.40999269699 0.720985485085 1.85467569515 48 28 19 2 0.755509494134 -0.368240528293 0.541852671486
-1.37777737763 0.911338835842 1.91414395877 13 6 4 3 0.730208745678 -0.459552892578 0.505575243321
-1.34671072016 1.06512835763 1.91625601062 12 8 7 17 0.816714509118 -0.57589999794 0.0362850240343
-1.35819460238 1.40542111438 1.89604607509 20 16 18 3 0.614545911307 -0.623056850501 0.483873417269
-1.93940618723 0.535160917845 2.13264718843 144 118 105 5 0.9038045438 -0.24140801695 0.353354660305
-1.32792489665 1.29956109695 2.10937329487 39 39 33 10 0.580387213094 -0.632998892716 0.512311511385
-1.51044923729 0.740266314487 2.15121713673 32 24 22 3 0.847056684817 -0.388822907933 0.362369588918
-1.37226293196 0.963226287776 1.91274803943 17 15 15 4 0.801388982117 -0.513439051934 -0.306848560843
-1.49978791146 1.17166857604 2.15654011471 28 22 21 5 0.786482158027 -0.558345656041 0.263999892964
-1.37119037987 1.38753318295 2.1249732367 69 48 41 7 0.70713064053 -0.6504923298 0.277175009866
-1.95930912178 0.681952719498 2.26863869825 27 19 16 6 0.929231338444 -0.302423197866 0.212295381595
-1.41814958416 0.582122874985 1.8300950235 13 9 8 7 0.917800224805 -0.354438744277 0.178929941327
-1.3754830648 0.856550477126 1.92571777373 64 42 32 6 0.839815890098 -0.50290660523 0.204436340105
-1.52778488878 0.614020552925 2.13452131409 129 101 90 5 0.875564765362 -0.326784081038 0.355806838097
-1.52778488878 0.614020552925 2.13452131409 129 101 90 5 0.875564765362 -0.326784081038 0.355806838097
-1.7992708276 0.596480067641 2.18815748091 160 129 117 5 0.916112659037 -0.284400625401 0.282584288707
-1.33080866404 1.27670371293 2.10975826511 56 47 41 3 0.697925565215 -0.621539244317 0.35579330122
-1.42333457326 0.70609904626 1.78418972272 59 40 33 24 0.888113656378 -0.436488838494 -0.143984815955
-1.36005533091 1.24400668954 1.91637107617 45 26 20 3 0.667305906048 -0.580384445502 0.466751243355
-1.76050292467 0.711782201353 2.21480747677 136 98 80 3 0.877487031632 -0.341243503347 0.337000564898
-1.31958079872 1.03100650645 2.09051860123 25 21 20 21 0.789084017443 -0.573645102299 -0.219721892456
-1.92785534365 0.796052335384 2.2646462968 38 30 28 5 0.904868520401 -0.352298443614 0.238953483789
-1.29910394369 1.39149867463 2.07691042183 13 9 8 4 0.65779136168 -0.656402393495 0.369386548635
-1.95252179995 0.612304598396 2.23988363017 164 132 116 6 0.934565603584 -0.273990473335 0.226972141723
-1.33750518199 1.258018477 1.99180793852 75 51 39 19 0.755883592963 -0.653525625126 -0.0392969616174
-1.91523248772 0.568000379188 2.18598617177 162 135 122 4 0.91562280114 -0.25881001267 0.307656079698
-1.51950522017 0.614362309412 2.13230182104 147 133 130 7 0.89642915156 -0.329104915586 0.296824410671
-1.79018706993 0.546635801857 2.13119949912 151 124 109 6 0.919687690793 -0.260942054722 0.293400401298
-1.39669194257 0.943929857788 1.83235001101 19 15 13 6 0.869093111491 -0.492751981308 0.0432741086054
-1.34816545778 0.895491993192 2.0163169285 64 41 30 25 0.809920497505 -0.530994314447 -0.249146193522
-1.31833833326 1.33641288492 2.0474083241 45 28 18 16 0.715900467016 -0.673118094542 -0.185468466663
-1.39606195302 0.73046005399 1.88087677303 41 22 17 10 0.885763442008 -0.403519076388 0.229337044091
-1.40005570867 1.27786066922 1.76876758486 61 41 30 26 0.71121178214 -0.676228259047 -0.192075877223
-1.32119253802 0.916149977696 2.09485754739 12 9 7 7 0.80458118422 -0.499253189706 0.32155150531
-1.37926777396 0.645369823288 1.95451604907 61 41 30 4 0.843767730274 -0.356875751183 0.400868701154
-1.65126963904 0.963123967722 2.19044105336 17 12 9 3 0.818787212218 -0.458179871992 0.345917195308
-1.65126963904 0.963123967722 2.19044105336 17 12 9 3 0.818787212218 -0.458179871992 0.345917195308
-1.40722253488 1.02473535108 1.8138500819 66 43 32 2 0.700389718988 -0.486107262806 0.522641340293
-1.37929085245 0.851698277448 1.91286151668 48 28 20 11 0.855933197051 -0.51399330897 -0.0564733611455
-1.36213517306 0.80498236295 1.98035564131 35 32 33 5 0.803216869356 -0.447006628849 -0.393735615036
-1.96843505444 1.01973700873 2.2788675439 100 76 65 3 0.861101706107 -0.430829733952 0.269980725389
-1.89349335399 1.23194677294 2.26408061291 133 96 78 3 0.826169994299 -0.510061236105 0.239333816966
-1.35426363606 0.998897751568 1.96878349649 9 8 2 9 0.79763452314 -0.5181370137 0.308728363663
-1.40590314392 1.43885668337 1.72858232668 17 15 13 5 0.647460471662 -0.611068941882 0.455400577408
-1.39065998564 0.549127048625 1.92101282179 17 13 12 5 0.865324028229 -0.306394225719 0.396657162567
-1.40707557054 0.957093608641 1.81617692676 51 33 25 4 0.727907570484 -0.463620632555 0.505179649136
-1.37956892648 0.96227075985 1.89251691553 12 8 6 9 0.814702501954 -0.497687860071 0.297601457066
-1.35492706261 0.631909596707 2.0361353335 12 9 4 13 0.893519331955 -0.417440857643 -0.165427729822
-1.39731455257 0.854542467883 1.84967298476 72 50 37 17 0.862036317003 -0.503731604246 -0.0561057844809
-1.6288050608 0.954862957715 2.1865707799 28 19 13 5 0.86178148851 -0.458120240388 0.217849745029
-1.44762836879 0.733280801195 1.72943754227 10 9 7 8 0.792555212117 -0.366968071378 0.487022248296
-1.3744636238 0.59475029952 1.97384979513 49 37 31 17 0.930092561212 -0.364755241314 -0.0433755865861
-1.52363503627 1.07490133301 2.16265200571 101 72 61 2 0.771515161768 -0.520826167223 0.365382619589
-1.31941797756 1.39239459837 2.11265763025 34 29 27 6 0.689992108493 -0.659156013829 0.299038859767
-1.36328181904 0.912010432435 1.95155452249 11 6 4 13 0.848179273749 -0.493759622573 0.191815939637
-1.40808792881 1.17055602323 1.75501332339 49 29 20 17 0.787026309191 -0.606810568738 -0.111222849759
-1.31824557553 1.37270160466 2.01675994247 29 18 11 5 0.672373800671 -0.642529046441 0.367518566403
-1.34839398664 0.950975944566 1.94453948469 14 8 8 8 0.806076230996 -0.4998164946 0.316898377322
-1.37795117566 0.822494582185 1.9216676225 47 31 30 29 0.798878893611 -0.518382962071 -0.305076413341
-1.4132535524 1.1924901447 1.7638271097 55 35 26 3 0.666689044465 -0.535871133019 0.518042321426
-1.35560379085 1.28524480456 1.92376118197 44 25 18 6 0.754023628481 -0.656304309006 0.0267024656731
-1.39152613573 0.650071048704 1.9044769069 62 42 31 25 0.895223491305 -0.411146751491 -0.171852405728
-1.6294591967 0.7431982106 2.18171573066 34 29 26 5 0.874424556002 -0.372064071765 0.311367985451
-1.74923887358 1.24660486697 2.22383232074 140 99 77 3 0.786861790833 -0.539234855897 0.300123794981
-1.74923887358 1.24660486697 2.22383232074 140 99 77 3 0.786861790833 -0.539234855897 0.300123794981
-1.41902961356 0.787565139632 1.79854204829 13 12 10 3 0.736592051826 -0.389490694664 0.552927796332
-1.38447470996 0.660436611992 2.11041405023 131 104 95 4 0.828745840913 -0.369944998365 0.419905976803
-1.38447470996 0.660436611992 2.11041405023 131 104 95 4 0.828745840913 -0.369944998365 0.419905976803
-1.42269600902 0.913486869371 1.75069759686 18 11 12 16 0.814482455658 -0.557327746015 -0.161257908169
-1.34194586816 0.915552462743 2.02789975269 55 37 27 18 0.855103781669 -0.515558770553 -0.0547419097298
-1.35774343896 1.01094059466 1.96103611614 47 34 27 18 0.835573021579 -0.548051554531 0.0381735403808
-1.51521441322 0.966350061078 2.15447215671 100 71 63 3 0.806577597447 -0.481854626485 0.342415972512
-1.41945618151 0.755945281091 1.81474600605 19 19 17 4 0.785842240531 -0.383420363926 0.485222420673
-1.40491942929 1.3298558169 1.74421922912 38 23 16 2 0.686924340719 -0.645666714495 -0.333540768005
-1.35050091229 0.954745434822 1.98986832756 13 10 9 7 0.78715605445 -0.498953320755 0.3625340393
-1.92740551006 1.42946076328 2.28676801178 23 20 19 3 0.78759165322 -0.563714428863 0.24884820769
-1.32882591371 1.03532418054 2.0613368888 53 35 28 23 0.798057017677 -0.579732467745 -0.164363202633
-1.68826879762 0.886645225946 2.20189141344 20 15 12 3 0.839159363109 -0.423201338304 0.341631659196
-1.84630486197 0.81866690826 2.24361003338 37 28 26 2 0.874821109186 -0.374059635719 0.307843167616
-1.39560797038 0.713843748461 1.90332509573 52 33 23 3 0.763601302364 -0.371839941212 0.527871299795
-1.39560797038 0.713843748461 1.90332509573 52 33 23 3 0.763601302364 -0.371839941212 0.527871299795
-1.38274392351 1.26267444623 1.83019275249 58 38 29 7 0.76050291314 -0.62032033927 -0.191932268767
-1.44467186015 1.23176505117 2.14191334714 146 109 89 4 0.733683754147 -0.586932122727 0.342372359006
-1.39379612051 0.818726006324 1.86500967166 43 30 25 10 0.886873591393 -0.461535707361 0.0209767423963
-1.49144100032 1.09913928853 2.14969568181 30 25 23 2 0.758530785884 -0.53439753315 0.372894520512
-1.6845635791 0.541285770087 2.08709589272 162 154 151 4 0.883356643609 -0.26874991323 0.38399807855
-1.64655709347 1.30498566392 2.20025173332 36 26 25 4 0.765723157396 -0.57382537744 0.290503842374
-1.83461813696 1.42522192586 2.25508651463 27 20 17 2 0.771072640051 -0.577472559589 0.268276772543
-1.69832172413 1.12028895184 2.20812873533 121 86 69 4 0.818828026603 -0.506932337766 0.26933300536
-1.35015038784 0.671848862456 2.10513522573 27 19 17 2 0.803000592293 -0.380178744832 0.458970773313
-1.40263930152 0.673358677889 1.86205386913 76 52 42 19 0.915258860841 -0.40172427142 0.0303121659468
-1.65756185345 0.777588189883 2.19422252341 190 186 185 2 0.851773909561 -0.383725854884 0.356701100762
-1.37660786224 0.796482939829 1.94638127298 24 20 19 2 0.755256973067 -0.416084258638 0.506419583298
-1.29831595081 1.3543040154 2.10206781469 32 28 27 2 0.654306778481 -0.648124489638 0.389637377014
-1.52320104035 1.27830695219 2.16486573371 132 95 76 4 0.743515289161 -0.587352182641 0.319691145218
-1.34753242095 1.02054866514 1.93960026718 135 127 124 5 0.739179489748 -0.514603178378 0.434508056013
-1.34753242095 1.02054866514 1.93960026718 135 127 124 5 0.739179489748 -0.514603178378 0.434508056013
