ply
format ascii 1.0
element vertex 467
property float x
property float y
property float z
property uchar diffuse_red
property uchar diffuse_green
property uchar diffuse_blue
property int32 number_of_camera_sees_this_point
property float vsfm_cnx
property float vsfm_cny
property float vsfm_cnz
end_header
-2.13944046678 1.21864686207 1.8858686918 19 9 7 2 -0.471796045979 -0.361474258512 -0.804204483593
-1.52235880772 0.675246998214 1.76550591982 25 12 7 3 -0.593728356565 -0.197131898115 -0.780144636177
-2.10824038461 1.22279735786 1.88928397492 20 11 8 3 -0.469073967149 -0.360196152575 -0.80636737596
-2.05897719919 1.13117177221 1.86371558935 30 17 11 10 -0.662642870894 -0.339739641482 -0.667443931473
-1.9253872748 0.61135287795 1.84066098606 70 49 38 4 -0.66670722679 -0.186549308788 -0.721596029047
-2.28755015196 1.2084561848 1.89737721966 11 7 6 4 -0.492956202152 -0.368082638738 -0.788358645427
-2.32887377599 1.00795338143 1.92054843302 15 13 8 2 -0.432572043024 -0.310857387348 -0.846315019556
-2.49183312556 1.10947755562 1.94815310124 60 42 29 9 -0.626663769372 -0.356354450386 -0.69303970005
-2.14525376008 0.749096648664 1.88199640546 19 10 8 3 -0.520660917507 -0.231507889738 -0.821776311395
-2.56408294522 0.529819056099 2.04389475968 69 57 52 4 -0.467531641575 -0.171806952174 -0.867119677617
-2.30218771211 1.06437619529 1.90537969839 11 8 9 2 -0.438426013138 -0.326536271299 -0.837350998405
-2.46139500835 1.02457076349 1.94099902568 50 33 23 4 -0.485243392213 -0.32693179983 -0.810958968489
-2.46296727783 0.722396637089 1.93288295371 14 9 6 2 -0.407161539448 -0.231741644365 -0.883467764585
-2.35571053479 1.06384097433 1.9185078467 61 42 33 4 -0.482490447055 -0.330867654262 -0.8110052798
-2.08196173545 0.865885539472 1.8701145884 33 20 14 2 -0.502894893363 -0.264456437256 -0.822897028202
-2.30586089904 0.980488386158 1.90881199994 20 16 15 2 -0.440715098473 -0.30317509892 -0.844899438616
-2.47809378967 0.722437639522 1.9377586284 13 8 5 5 -0.471726737571 -0.234279617038 -0.850051143227
-2.07302539488 1.24032476166 1.86048872198 13 9 8 4 -0.580768701768 -0.36639579934 -0.726953804084
-2.41980604769 1.18644349726 1.93494092692 55 34 28 6 -0.552119043938 -0.37226171884 -0.746046763954
-2.12050551645 0.673411553259 1.8670160432 20 13 7 2 -0.501570041463 -0.2101147983 -0.839213480017
-2.46144407714 1.0962823223 1.94110475454 37 19 9 7 -0.329528987033 -0.349504560408 -0.877073092142
-1.50365666596 1.21646459471 1.76637457933 9 5 2 3 -0.664689871359 -0.331190755739 -0.669701469482
-2.48912491491 0.58936822709 2.48670134648 87 57 46 17 -0.963818844517 -0.219082280629 0.151842646408
-2.56334828421 0.852994603106 1.97145647008 12 8 7 3 -0.445153399899 -0.273568835797 -0.852642095277
-2.53962987749 0.55260680879 2.21856791911 126 94 79 13 -0.977091079033 -0.197713175378 0.0787561017102
-1.74592760397 0.503361351735 1.94275866262 74 70 66 3 -0.601445393834 -0.145493457097 -0.785554003349
-2.02627504327 0.989065927088 1.85783298311 14 13 11 14 -0.832968808737 -0.302668045453 -0.463200839737
-2.02913846767 0.986817785599 1.85409804487 14 13 11 5 -0.602350581625 -0.296051789983 -0.741300960788
-2.55918808969 0.555903548656 1.99480872624 64 54 52 2 -0.410746907323 -0.179880634627 -0.893828806545
-1.89576327882 0.542577162908 1.87585152483 137 101 79 5 -0.632755689381 -0.162898418042 -0.757023343732
-1.88097574284 1.10804695153 1.83216679982 50 32 22 3 -0.56631967373 -0.321954146966 -0.758701228678
-1.45911408139 0.765010469303 1.74609192068 59 59 59 2 -0.667804679843 -0.216172981867 -0.712254274463
-2.15900722608 0.523657396646 1.98252030085 135 98 76 13 -0.763639876058 -0.165215433196 -0.624145816558
-1.79431631289 0.986023991492 1.80319162294 13 12 10 3 -0.592932196575 -0.287280373426 -0.752264180531
-1.79431631289 0.986023991492 1.80319162294 13 12 10 3 -0.592932196575 -0.287280373426 -0.752264180531
-2.58408749294 0.745849496961 2.02236642648 25 18 15 26 -0.933660456803 -0.292002275738 0.207395328698
-1.47040099753 1.04141297762 1.75727655501 9 8 6 6 -0.764223172252 -0.28224165964 -0.579916018538
-1.80679819577 1.08141352158 1.81539142443 31 16 10 6 -0.814488816314 -0.311536501819 -0.489441494087
-1.71600370722 0.484118058648 2.24809565921 146 113 95 3 -0.567777901075 -0.130221673768 -0.812816443443
-2.03999353139 1.04485849423 1.85961325681 8 8 8 5 -0.596419007003 -0.31201119403 -0.739549445869
-1.5010452859 1.17591848445 1.76051108486 9 5 4 2 -0.639159971838 -0.323313839431 -0.69781279125
-1.88665872544 1.16671547417 1.83031130869 51 34 26 6 -0.617452495125 -0.375849485921 -0.691006208508
-1.88762076922 0.90644405573 1.83113734678 50 33 25 7 -0.673047158365 -0.267518299919 -0.689522647797
-2.03944612465 1.11468741287 1.85727195764 10 6 3 5 -0.622120232649 -0.331679666822 -0.709193213973
-1.95294377653 0.464571891884 2.15040332836 153 115 105 3 -0.534971501037 -0.132579639765 -0.834402859654
-2.5805330929 1.22248374298 2.02356185 113 96 90 2 -0.379180689336 -0.370419742421 -0.84794529261
-2.22266047632 0.735058988281 1.88465482991 22 16 17 2 -0.50309421315 -0.230452877822 -0.832939183733
-1.77546876006 1.07541807308 1.8071117699 9 5 4 22 -0.209470322351 -0.384027321897 -0.899247018394
-1.71111794845 1.12196466548 1.80237064445 36 22 15 2 -0.601081165224 -0.318801122117 -0.732848741112
-2.02508576643 0.859782740252 1.85708926674 17 13 10 3 -0.545667641607 -0.259949661531 -0.796663667034
-1.7770748718 0.532110973294 1.88508989005 84 62 53 4 -0.627931223111 -0.156257203307 -0.762421186391
-1.99962836347 0.751603721294 1.85106721382 12 8 7 3 -0.556221783246 -0.228479897163 -0.799008300605
-2.25681935694 0.835908256294 1.89981696898 37 22 16 3 -0.546920616664 -0.261554632107 -0.795277947318
-2.56782411884 0.754677794437 1.96323809179 21 17 16 2 -0.406573842819 -0.243062066206 -0.880692081438
-2.15161270789 1.2335766294 1.87731255189 15 11 10 3 -0.497480212629 -0.365384795827 -0.786770226318
-1.59767160032 1.23318860842 1.77492609537 14 10 8 9 -0.390230893751 -0.386075925578 -0.835861967822
-1.47216393384 0.937511426626 1.75142307833 11 10 9 5 -0.708434269044 -0.259486530677 -0.656344137508
-2.5328798873 0.738464271799 1.94585170566 13 9 8 3 -0.480682818906 -0.239662662944 -0.843508053073
-1.85990637266 1.10820713241 1.83421330777 42 24 14 3 -0.603333956027 -0.320390676326 -0.730299905537
-2.17551429659 1.14452401781 1.88368083337 34 19 12 3 -0.584523357247 -0.346710217405 -0.733569676295
-2.16704041684 0.755166402378 1.88498805919 27 13 6 3 -0.553062760863 -0.234630183672 -0.799418700968
-2.3984751868 0.627900598921 1.93352252668 47 28 16 2 -0.457878747193 -0.201140339781 -0.865961671543
-1.44921681513 0.471487040613 1.99120132693 88 78 77 8 -0.749330720704 -0.126750102619 -0.649952215547
-1.94949040509 0.955082404579 1.84940344401 29 16 8 3 -0.592743648609 -0.283461850218 -0.753859633158
-1.54638568031 0.885047592702 1.76803061991 49 31 21 4 -0.730889746103 -0.247746599402 -0.635941665192
-1.94960063597 0.697746285234 1.83665845813 17 12 12 2 -0.570364524041 -0.212210676781 -0.793505474698
-2.04199150646 1.12802764744 1.85891055733 10 6 3 4 -0.554463772812 -0.336404967721 -0.761184355023
-2.07208286702 0.754821875255 1.85965754805 20 16 13 5 -0.594218464993 -0.231945611444 -0.77013352686
-2.33550424748 0.980760356915 1.91453747243 15 11 10 3 -0.462782156104 -0.303415157727 -0.832929719756
-1.47725378424 0.579705960256 1.76694853428 76 68 63 2 -0.668833652945 -0.16551471049 -0.724752664914
-2.38718165433 0.493937256219 2.07778185273 140 108 87 2 -0.446243308247 -0.153162793116 -0.8817074734
-2.41196262045 0.549484569154 1.97501923174 140 102 81 2 -0.451426063163 -0.175279075252 -0.874923856845
-2.3516752146 1.25665897785 1.91996569585 10 7 6 2 -0.445217816548 -0.378315258595 -0.811577883473
-1.9303573703 0.683470435819 1.82570792525 13 13 8 3 -0.576449930138 -0.207539618629 -0.790337133598
-2.54663981666 0.811914864652 1.95995631576 19 16 15 2 -0.410678677479 -0.259747576484 -0.873998981907
-2.58018131551 1.00216330849 1.9638106183 15 11 10 7 -0.572237802451 -0.326879453729 -0.752126133156
-2.29527000597 0.742155855087 1.90231171422 28 24 23 7 -0.644111999571 -0.237345993656 -0.727177152628
-1.80878633404 1.21012299713 1.80857866903 13 8 6 8 -0.80447352908 -0.343234331982 -0.484780913773
-1.68265359422 0.559023598228 1.82195374932 142 106 90 2 -0.627702612692 -0.164097711536 -0.760960820994
-1.68265359422 0.559023598228 1.82195374932 142 106 90 2 -0.627702612692 -0.164097711536 -0.760960820994
-1.58877158382 0.568892283906 1.78964142511 140 133 131 3 -0.679049093066 -0.164316586696 -0.715466553056
-1.53176938651 0.469561809093 2.09158610563 50 43 44 7 -0.706594460224 -0.126123008663 -0.696288198569
-1.78543593753 1.12415751978 1.81480995649 20 10 8 2 -0.585752412689 -0.322548601997 -0.743543213525
-1.68813318217 0.488701401961 1.95836886646 83 67 62 2 -0.609967168695 -0.139835264389 -0.779991122993
-2.5837866683 0.698954711737 1.95980030149 14 10 9 7 -0.588252677255 -0.23393211801 -0.77410241691
-2.57707225484 0.588042854983 1.95975564392 11 8 8 14 -0.785684026111 -0.209657434523 -0.582017500823
-2.31815234012 0.567386739455 1.93005305665 68 50 44 3 -0.558803723058 -0.180980245592 -0.809311157591
-2.5835628805 0.831645682793 1.99568898317 27 26 26 2 -0.427149167951 -0.264639654507 -0.86458628348
-2.48296056727 0.754749450158 1.94283616219 32 20 15 5 -0.608767759607 -0.249093001882 -0.753229374942
-2.26240095961 0.573480671325 1.91417540846 58 41 33 9 -0.71252153422 -0.184556407823 -0.676943125827
-2.58285452527 0.774581852762 2.00095035608 28 29 24 2 -0.428705556587 -0.24724573528 -0.868954021878
-2.4930750685 0.582428417874 1.93629484069 24 19 19 2 -0.465943469588 -0.189401909274 -0.864305270093
-1.88456807143 0.838591757125 1.83119428653 39 22 14 6 -0.777818027503 -0.268370789154 -0.568309981982
-2.34508049873 0.820597192081 1.91623694999 36 19 11 4 -0.6087465197 -0.263482465292 -0.748334594441
-2.58465420786 0.806729457513 1.97402803248 33 29 28 3 -0.481936695076 -0.261495410506 -0.836275775222
-2.58561514759 0.849793477362 1.95982464901 12 8 7 6 -0.608438698224 -0.283093490332 -0.741390872776
-2.58593834782 0.727026265314 2.0150738382 39 31 30 8 -0.606686795277 -0.241070660559 -0.757506481196
-2.48169548357 0.711761546765 1.94187889953 13 9 7 4 -0.524889757648 -0.230830645515 -0.819272821109
-2.58200746161 0.884178636946 1.9669439882 12 8 7 2 -0.428967109406 -0.282231976762 -0.858098088997
-2.58660992818 0.732678621703 1.99902270854 79 73 70 3 -0.460562876213 -0.236370452696 -0.855576323975
-2.56767003361 0.57480183924 1.9737858022 53 43 39 2 -0.442094276941 -0.187084084835 -0.877241241334
-2.31455019196 0.68640509767 1.90842860265 8 4 3 4 -0.56798920576 -0.218451920979 -0.79351560814
-2.58525719483 0.665849286965 1.9984976526 27 23 21 3 -0.463231936903 -0.215868857507 -0.859544535781
-2.58516013411 0.584302519322 1.98463582696 38 33 30 29 -0.968606605992 -0.245831282051 0.0369895065235
-2.57909725943 0.57599319641 1.95984494765 79 71 68 9 -0.651329764521 -0.196993601105 -0.732777632692
-2.58408826629 1.19988740133 1.99598425328 28 21 18 7 -0.907764329759 -0.402003102446 0.119822482205
-1.92387795963 1.1066007638 1.8382971781 48 31 23 2 -0.501703636163 -0.330861471499 -0.799264754721
-1.6673413125 0.676999284072 1.79458633862 19 11 8 7 -0.486125909419 -0.204387886621 -0.84965121785
-1.88451039914 1.24564029265 1.82871921389 25 21 20 10 -0.276210189565 -0.390573029223 -0.878157525746
-2.19223392296 1.02399248457 1.89049032725 43 26 18 2 -0.318893007933 -0.326393899285 -0.889816987926
-2.3360940766 1.10621123231 1.91769195954 35 20 13 2 -0.306587151697 -0.349499478378 -0.885355540462
-2.13709984629 0.848297183296 1.87691900763 51 34 26 2 -0.370122500841 -0.272209688019 -0.888206744018
-2.1976704162 0.674741865335 1.8887866668 25 15 10 5 -0.439273805535 -0.216477747429 -0.871880673395
-1.94855364184 1.09704699074 1.84844856426 48 31 23 2 -0.52334018331 -0.326422754125 -0.78712339447
-2.33503019 0.584996780271 1.91847980804 97 71 46 5 -0.638709082855 -0.195213039467 -0.744273186875
-1.92381154702 1.10688397919 1.83834086875 47 30 22 3 -0.425930177293 -0.333100431147 -0.841206031149
-1.70706621726 1.24351476549 1.76597388178 14 12 10 2 -0.521292720051 -0.364332407591 -0.771696700006
-2.02259811482 1.24444487759 1.85348561429 17 14 13 11 -0.85996008018 -0.371833500074 -0.349583335872
-2.2860910691 0.809987729311 1.90070361911 16 15 14 2 -0.453057371538 -0.256894663016 -0.853665127676
-2.46886518392 0.795221886446 1.94217112982 30 17 9 2 -0.402651003175 -0.255983507508 -0.87883139084
-2.46246807508 0.831901617949 1.93822320939 32 17 10 2 -0.403498181814 -0.267013769063 -0.875153051988
-2.11964593015 1.05521689324 1.86916192589 39 20 13 4 -0.580073709343 -0.323731410833 -0.747470712048
-2.52680473653 0.609420884313 1.95580495524 12 7 4 2 -0.39134252456 -0.199747453814 -0.898305061305
-2.48126981417 1.12357746238 1.94640960854 52 34 24 10 -0.676996557471 -0.36667246737 -0.638143371701
-2.55908070801 1.12701803694 1.95986540816 11 7 6 3 -0.415623798827 -0.352493671766 -0.838453975608
-1.99170895664 0.999594267029 1.84978840982 13 9 8 14 -0.792023695231 -0.301520122241 -0.530833384477
-1.60510261852 1.17426712432 1.77140207369 47 29 19 2 -0.643107075914 -0.327557804407 -0.692184349492
-2.48036583936 0.897790336678 2.56700314173 28 22 22 2 -0.391000328973 -0.243897571241 -0.887486742146
-2.57790149444 0.662840955716 2.00677278998 32 28 27 5 -0.561464051515 -0.219124651354 -0.797961469011
-2.54356743279 0.704169356865 2.21780960242 31 27 28 2 -0.416622591981 -0.21338379912 -0.883681486806
-2.17306716238 1.20836797985 1.88681278584 32 19 16 3 -0.511177651991 -0.359985008012 -0.780453843678
-2.0378117718 0.787486851934 1.85314579355 12 8 7 7 -0.76005027334 -0.242037476559 -0.603109809187
-2.58402265115 1.0413851926 1.97475621603 35 32 31 7 -0.567429099684 -0.336047316955 -0.751728952216
-2.57779046919 0.807717833872 2.02652480835 108 75 66 32 -0.904941191434 -0.324511781277 0.275269947248
-2.04640510153 1.13605561813 1.86145476606 30 25 22 6 -0.673428998429 -0.339995114635 -0.656427228335
-1.70031326988 1.16684352635 1.79796045753 37 20 12 2 -0.62444330168 -0.329535495466 -0.70815035142
-2.14222982751 0.736813208195 1.87588880866 20 16 15 3 -0.614362540212 -0.229894083329 -0.754789626078
-2.09069613436 1.06482196477 1.87043259182 46 27 20 4 -0.598905617697 -0.320714395041 -0.733794479336
-2.51077228448 0.869215284443 1.95052927345 40 26 20 7 -0.672179815561 -0.28885180974 -0.681717630374
-2.28841741794 1.15669624348 1.90232603225 17 13 12 4 -0.537037636976 -0.353390676486 -0.765967105197
-1.75219978989 1.1645479068 1.80288565205 7 4 3 2 -0.614996823002 -0.331632304874 -0.715401231521
-1.7045574836 0.80530299815 1.80024912236 40 23 16 2 -0.641880176843 -0.234529322255 -0.730058789125
-1.49099678067 1.18818399441 1.75683465345 20 16 15 4 -0.722820986362 -0.32084653465 -0.612035393484
-1.6179987661 0.987295402913 1.77686168291 48 31 23 3 -0.643282191962 -0.280159483449 -0.712529778563
-2.50617275531 1.00269145039 2.41882715121 112 80 60 3 -0.528761071277 -0.28690951934 -0.798808273126
-2.13062339702 1.23094795405 1.87181363936 10 8 8 5 -0.55621744055 -0.364788243197 -0.746693843857
-2.57010707783 0.644643717175 2.05406475755 106 72 54 5 -0.97292484719 -0.228119815874 -0.0371293862737
-2.5759479017 1.17507208871 2.04627110178 114 86 70 6 -0.524181617867 -0.364526104072 -0.769645600871
-2.55156052934 0.738418632105 2.19322257742 26 23 28 15 -0.859474776143 -0.266359101322 -0.436297992566
-1.89935912905 0.694985571549 1.82370997112 14 10 9 6 -0.748948726498 -0.207705668428 -0.629232993715
-2.55731675769 0.677799961152 2.13781168615 110 87 73 5 -0.511638175331 -0.213115552016 -0.832350971065
-2.49657040362 0.876393311355 2.45073774192 104 71 62 22 -0.876707904634 -0.319946798913 0.359189776883
-2.33442319749 0.521207947985 2.00874353968 137 101 82 19 -0.889111072691 -0.177627403792 -0.421817503004
-1.97524797604 0.557361409435 1.87225183851 124 86 70 2 -0.618595646571 -0.169374819947 -0.767236336738
-2.55107238896 0.498676124868 2.09487004012 105 94 92 2 -0.881730114907 -0.167868279668 -0.440876677935
-2.37955177614 0.489891899371 2.09467539156 137 102 83 3 -0.505233865432 -0.151527566732 -0.849575269026
-2.18726035989 0.554820496341 1.92470891829 103 74 58 5 -0.644157289442 -0.174409894146 -0.744743294889
-2.5735096156 0.705649632056 2.06789993139 28 24 23 6 -0.545577423724 -0.227616934822 -0.806557998972
-1.52442462983 0.901679131937 1.7633270966 41 24 16 11 -0.862298155131 -0.244324852008 -0.443562011841
-2.39642867807 0.670325123289 1.93264449601 28 17 11 3 -0.685184222416 -0.231389273648 -0.69063853454
-2.5611642094 0.532401555109 2.11271552762 83 75 73 3 -0.45851671202 -0.168049950676 -0.872652072063
-2.05656425648 1.02110919607 1.86360401325 15 11 8 7 -0.700259075065 -0.306128318257 -0.64492067772
-2.47037693008 1.0307522892 1.94249348198 40 23 15 3 -0.541297429049 -0.326056734492 -0.775038127577
-1.67996894913 0.517545543975 1.88890388119 132 96 79 6 -0.785330152566 -0.147501145121 -0.601248670401
-2.51651027855 0.745930234467 2.3527118666 36 26 24 4 -0.463500040639 -0.218181825782 -0.858815698055
-2.55067576059 0.900284180691 2.16709576722 28 27 26 25 -0.927998589348 -0.336869636447 -0.159177467654
-1.46294707007 0.467412290052 2.08397363812 35 32 28 8 -0.740605965743 -0.124093591874 -0.660381392804
-2.50619181983 0.704079724256 2.42576967414 30 29 25 3 -0.430964254032 -0.201205564991 -0.879651142421
-2.58619021492 1.23316598421 2.00479813871 39 39 29 24 -0.862401942778 -0.437916838718 -0.253952222791
-1.94503228463 0.529460162248 1.91767683356 108 77 65 9 -0.757588706345 -0.158809027724 -0.633118507653
-1.98143234189 0.468013614561 2.13187122934 42 40 40 3 -0.583815640873 -0.134584591823 -0.800653661152
-1.98930623306 0.466514059978 2.12075440983 42 40 40 7 -0.681153048787 -0.135586178024 -0.719476832468
-1.53735385207 0.476392696027 2.0740614663 144 108 92 7 -0.758290987359 -0.12777257667 -0.639272201133
-1.99426522507 0.958417890684 1.84936190289 9 7 8 5 -0.705535677695 -0.285422100368 -0.648655249051
-2.55027483293 0.48350757403 2.16276204792 193 186 184 8 -0.601541878529 -0.1560062169 -0.783459908779
-2.55130776938 0.867809832932 2.17050742462 30 28 26 3 -0.443837762676 -0.263248397105 -0.856567756715
-2.55241649985 0.525473032861 2.16483005742 91 83 81 14 -0.758498882953 -0.178774684714 -0.626673006171
-2.56427520546 0.512377886848 2.10450672977 87 79 77 5 -0.51968205031 -0.164406852709 -0.838391885319
-1.64895168825 0.544950422345 1.83852156396 143 110 93 14 -0.878771074354 -0.154669391054 -0.451485080983
-2.55539153104 0.513344344102 2.07188138944 25 18 14 3 -0.465614262487 -0.163905140745 -0.869677217941
-1.85291378103 0.88120204053 1.83583050354 47 29 17 2 -0.632807700104 -0.258410208943 -0.729916829922
-2.43619626472 0.765060109091 1.93551548362 34 21 15 5 -0.69135682929 -0.253721818987 -0.676499056292
-1.57165150072 0.742504786006 1.76596256452 13 9 8 4 -0.725289636639 -0.210263501721 -0.6555487799
-2.48787311972 1.17619741615 2.50079933173 87 67 59 17 -0.757605941003 -0.374902139925 -0.534304804056
-2.49357204142 0.739173603857 2.54146795061 84 79 77 6 -0.500877663767 -0.208877467218 -0.839935574689
-2.49195175835 1.07648161442 2.49500383258 93 74 62 9 -0.590538259947 -0.310578601524 -0.744852667186
-2.54647454757 0.852888494535 2.20271780427 23 19 18 38 -0.915857045493 -0.367517609379 0.161668423066
-2.31353745166 0.496818371263 2.04785573112 128 115 107 3 -0.526269948181 -0.153873120378 -0.836279262248
-2.506027408 0.744021759411 2.42571092145 30 27 23 2 -0.430060917844 -0.21221985202 -0.877502331252
-2.52651319426 0.582498005421 1.94097164658 27 22 19 2 -0.488313233493 -0.191341068607 -0.851433368773
-2.48024692273 0.833725666852 2.54014380976 122 91 82 34 -0.927419317267 -0.347910250554 0.137302103118
-2.5532350492 0.706384529134 2.17541502656 29 24 21 9 -0.617952035917 -0.225761837526 -0.753104822732
-2.57687756713 0.680410719523 2.03412618834 155 147 140 10 -0.688277768329 -0.230429851136 -0.687877748826
-2.57004953729 0.68304135923 2.07098763768 32 29 28 29 -0.958535746826 -0.276293469927 -0.0697935565206
-2.24275345042 1.21963011252 1.89235288502 8 2 2 2 -0.531234873576 -0.366145765199 -0.764020148768
-1.56112935218 0.708720808715 1.76472514367 7 3 2 2 -0.696860385594 -0.201695739392 -0.688261891797
-2.34191941635 0.822888237128 1.92198245343 36 19 11 3 -0.582388316496 -0.260746892843 -0.769957730451
-2.54231978548 0.476289011043 2.17575356975 50 46 43 6 -0.628893419211 -0.153869283084 -0.762113712642
-2.19528059775 0.754692511148 1.87940653984 26 10 8 4 -0.538302097369 -0.235609176284 -0.809147185634
-2.0347834846 0.655772956853 1.85218501338 10 6 5 6 -0.743154901966 -0.201509816336 -0.638055315473
-2.54805881207 0.622843280092 1.95674831452 8 7 3 2 -0.920149924139 -0.211582584825 -0.329479782241
-2.16664713804 0.887934174203 1.88441122528 47 29 19 13 -0.39094691278 -0.280015309571 -0.876785000895
-1.7406331783 1.21266990827 1.79608170894 11 7 6 2 -0.638888051076 -0.341288957277 -0.689451887975
-1.7406331783 1.21266990827 1.79608170894 11 7 6 2 -0.638888051076 -0.341288957277 -0.689451887975
-2.34731280868 0.575537831567 1.9336710604 110 78 63 4 -0.617578401272 -0.18583327102 -0.764240089019
-1.75145012108 0.871177913603 1.80365654698 11 7 5 2 -0.654871940678 -0.252544060269 -0.712295050478
-2.29437679999 0.762663378658 1.90262688955 26 22 21 9 -0.650308649185 -0.246463541301 -0.718578028891
-2.49150098538 0.472823089974 2.23044935958 42 38 35 5 -0.520056518735 -0.145334482712 -0.841676366222
-2.56474015246 0.508883063741 2.08122468162 219 211 208 7 -0.581608939821 -0.166644273722 -0.796216507714
-1.40921089088 0.960370347115 2.4001945027 123 80 58 17 0.186608250468 -0.328400699681 0.925921347257
-2.29399691484 1.229086428 1.90344832596 23 19 18 4 -0.609700127239 -0.373523589618 -0.699103628115
-1.53081532145 0.469676070691 2.09274066107 43 40 29 2 -0.664878405114 -0.125963821992 -0.736253911339
-2.28426496466 0.730088864305 1.90007917097 10 7 5 3 -0.583163073867 -0.231022953968 -0.7788127015
-1.54218369139 1.25446611539 1.75980297847 11 8 6 2 -0.671933141576 -0.341526869424 -0.657164553756
-2.11601847398 1.05741158943 1.87381086849 39 21 11 2 -0.569124851968 -0.317441269671 -0.758503752912
-1.51301512817 0.484499651748 1.93738847544 128 94 84 3 -0.687759336112 -0.133438395077 -0.713569401187
-2.3289558351 0.986364414262 1.9143987827 8 6 4 2 -0.522187708256 -0.305934859637 -0.796067747748
-2.59045201919 1.25621940861 1.96587618928 13 11 11 16 -0.830245993833 -0.433606221321 -0.350253100709
-2.55412807611 1.2299808966 1.94901078617 17 15 16 2 -0.452372666813 -0.381279175646 -0.806216571734
-1.46688264252 0.748122783187 1.75065370125 20 19 17 2 -0.71051718433 -0.209050143527 -0.671910238249
-2.49365553922 0.537934927203 2.00944295956 82 57 45 2 -0.488458831682 -0.17294231918 -0.855277103627
-2.55461089182 0.493735450561 2.10804872845 68 59 57 4 -0.536720628319 -0.158584904802 -0.828722990574
-1.95968335242 0.521542085489 1.93281477673 137 99 82 2 -0.613949004562 -0.156104311641 -0.773755816575
-1.54205800322 1.21118176927 1.76120236573 16 8 5 4 -0.714122897291 -0.329266072583 -0.617747797252
-2.50715691126 1.10154737175 1.94939062975 39 21 13 5 -0.539186980319 -0.347975080998 -0.766935944691
-1.72448139802 1.05675566046 1.7997305808 35 24 21 5 -0.710218329482 -0.299214288358 -0.637228949523
-2.50309902909 1.16842336176 2.42099863618 134 94 74 23 -0.789164407253 -0.418009815055 0.449985925161
-2.50922731565 0.621019565856 2.32032996864 123 90 73 3 -0.444015499027 -0.183241115103 -0.877082054519
-2.56562344776 0.800062853642 2.10221428569 113 81 68 3 -0.509536250238 -0.2512961833 -0.822935621998
-2.53618926678 0.722454285625 2.26188460189 36 26 27 6 -0.581231595441 -0.222377186125 -0.782763195067
-2.48953612626 1.09470122784 2.50156687079 84 58 50 6 -0.854092674057 -0.352359134259 -0.382581683599
-2.5721423261 0.889533676156 2.17795263501 26 19 16 2 -0.466105964788 -0.270866804501 -0.842244859769
-2.53612408647 0.511034756056 2.24374025651 53 49 48 8 -0.651038146978 -0.163056858417 -0.741324350135
-2.18837877084 0.469053450583 2.16279105931 158 122 106 2 -0.565469143252 -0.138852711596 -0.812997277063
-2.27211856487 0.482897705152 2.09830245293 72 64 62 8 -0.710772855015 -0.150250943552 -0.687187458075
-2.26953345633 0.483808728549 2.10196194527 72 64 62 4 -0.610787808804 -0.148010500773 -0.777837479347
-2.56426644309 0.550286215178 2.09925670407 35 30 27 7 -0.577689718702 -0.178892400135 -0.796412015279
-2.50564485082 0.749609239053 2.33504557094 26 22 21 2 -0.467802595761 -0.219647211033 -0.85610503683
-2.05637470477 0.576395279551 2.51625502343 142 101 80 12 0.531569301921 -0.195996518257 0.824026360067
-2.57513228682 0.808759852422 2.04193435993 111 82 68 3 -0.455362067149 -0.255891920725 -0.85273953392
-1.41307794341 1.04041765018 2.03647684967 56 34 23 8 0.829386537726 -0.345578838163 -0.438968378875
-2.54870067645 1.21198355501 2.19245628695 102 73 64 3 -0.483364930006 -0.357237530099 -0.799211919036
-2.53698179412 0.527062356493 2.22558926934 36 30 30 3 -0.508795022774 -0.162552314507 -0.845401898418
-2.48270793219 0.610081006398 2.54372297727 31 28 27 3 -0.425892530824 -0.169671797027 -0.888722135137
-2.55611768839 0.882731536936 2.18543231579 16 12 12 3 -0.49772445749 -0.269216020802 -0.824495663154
-1.71201521219 0.715410857324 1.79168895286 108 99 98 3 0.827927505547 -0.231253823159 -0.510938073383
-2.22148287435 0.462224642347 2.16666156418 166 129 110 3 -0.585027691845 -0.137737110151 -0.799231561102
-2.22148287435 0.462224642347 2.16666156418 166 129 110 3 -0.585027691845 -0.137737110151 -0.799231561102
-2.5508588747 1.09492710437 1.95640077953 7 7 4 9 -0.712424074127 -0.358869503225 -0.603046116197
-2.23234010739 0.652888899286 1.89884852479 36 21 14 3 -0.615167380817 -0.205600562665 -0.761115958452
-2.47770783458 1.05900325225 2.57158113361 37 35 33 3 -0.463996926559 -0.287223732887 -0.837979343069
-2.53123300736 0.542686245661 2.27212545948 129 91 73 9 -0.671364441717 -0.172868559056 -0.720684568787
-2.55671411993 0.545699165798 2.14403578496 58 54 52 5 -0.515081547506 -0.172718816578 -0.839558937668
-2.47545916523 0.657672061424 2.56095475637 39 38 34 33 -0.949682703279 -0.298318373897 0.0954406144571
-2.55798736935 0.697292345975 1.93282083077 13 9 8 2 -0.508450869776 -0.229634405756 -0.829907074748
-2.47920835343 0.589817131235 1.94419454026 14 9 10 7 -0.541453295919 -0.207625416894 -0.814690134099
-2.57064958679 0.958872840845 2.23106937039 29 27 27 4 -0.457655682189 -0.286686115473 -0.841642648489
-2.47840522394 1.15261024797 2.57183311009 30 28 28 6 -0.485744866882 -0.313055601417 -0.816117708863
-2.46999300673 0.477835150431 2.20850608159 135 106 94 3 -0.527294642541 -0.146826551868 -0.836900426343
-2.48040685039 0.474191851985 2.19138026007 135 106 94 7 -0.637529363759 -0.150225739571 -0.755637834889
-2.57507420042 0.788193329136 1.96411039046 12 8 7 7 -0.663296695385 -0.264743835033 -0.699962995953
-2.54122764888 1.26229807164 2.25351177268 59 59 59 3 -0.475687690252 -0.364479316358 -0.800547343566
-1.97682912827 0.928152916707 2.50911370123 132 95 77 2 0.473474480227 -0.292808002903 0.830713783447
-1.36114441458 0.552242989147 2.30967311183 21 16 13 9 0.969851935731 -0.197588452022 -0.142639497986
-2.06404356796 0.526649781358 1.94605352471 126 92 75 4 -0.668867760159 -0.160056536243 -0.725946158214
-2.57752323176 0.78437711573 2.03131833271 111 86 76 3 -0.456962390461 -0.249469677213 -0.853785836059
-1.63976400748 0.602775278226 2.44519647933 29 25 22 21 0.400082644182 -0.228321539367 0.887582758105
-2.11643155754 0.974532644992 1.88364167487 47 30 22 2 -0.598424222547 -0.293736074971 -0.745390882778
-2.53734591568 0.534156270602 2.03127795155 63 54 52 2 -0.505253706828 -0.172627745331 -0.845528446167
-2.25418738966 0.467397046503 2.16413637804 36 34 35 3 -0.524462780512 -0.139411052334 -0.839942468473
-2.25973615046 0.466320121627 2.15607787435 36 34 35 2 -0.55188207008 -0.13993455398 -0.822097622747
-2.57786760614 1.25052798419 2.05933705896 60 55 52 5 -0.576172584837 -0.387052976594 -0.719871617576
-2.58298854813 0.784315770273 2.00090813635 28 24 23 9 -0.686006939789 -0.263099697397 -0.6783605441
-2.26912168374 1.05077159799 1.91323311697 11 8 6 3 -0.603671253492 -0.32192512019 -0.72934575799
-2.49870824127 0.652526975648 2.45925491666 131 97 81 3 -0.430306393491 -0.185281728471 -0.883463122499
-2.33504008149 0.672375871218 1.92565015624 36 23 22 2 -0.561690020574 -0.213856911106 -0.799230593984
-2.57199445606 0.632671051861 2.04126991653 123 88 78 14 -0.791275067626 -0.221664111685 -0.569867343286
-2.23742717491 0.725911863123 1.89669524721 10 7 4 6 -0.515924513422 -0.253668777935 -0.81821393752
-2.48216428689 1.17149782113 2.56035016877 22 18 16 8 -0.616507473532 -0.330496840717 -0.714626037418
-2.50230453914 0.601064762717 2.42037515362 119 83 67 3 -0.490034769297 -0.174818215845 -0.853993276489
-2.49350155557 0.53681150692 2.49536177994 96 81 79 15 -0.760626285365 -0.17180477189 -0.626043747966
-2.52396203601 0.586206605284 2.29066678694 107 70 51 5 -0.714440307493 -0.20191474822 0.669929460078
-2.55492350923 0.884846009483 2.35648020141 18 13 11 4 -0.504630339105 -0.260241046665 -0.823178485193
-2.55348896764 0.885643483707 2.35908437485 18 13 11 7 -0.583831224338 -0.265858859035 -0.767111575041
-1.99554359516 0.568345580931 1.86756863237 67 47 37 7 -0.757142856573 -0.172828912105 -0.629972111987
-2.55532956108 1.07952703565 2.16137808729 111 78 63 11 -0.722668975987 -0.359562568195 -0.590308657144
-2.53816601976 0.849771389737 2.2403159454 23 19 15 9 -0.605460331056 -0.275986504003 0.746491284026
-2.53405682006 0.530201752612 2.03497895628 56 52 48 4 -0.565077528525 -0.172774043094 -0.806744393714
-2.44366629247 0.489243457006 2.11168897309 131 97 85 4 -0.517449558334 -0.152851796933 -0.841951472921
-2.05369691131 0.752450785167 1.86214307126 15 11 8 6 -0.73422249866 -0.229989849898 -0.638765991115
-2.55129726147 0.867816498349 2.17052809912 29 26 24 4 -0.487402162443 -0.265971079774 -0.831684144835
-2.56838907118 1.24412294368 2.0880093199 112 100 98 2 -0.461322057949 -0.373849002879 -0.804623441056
-2.49940399345 0.562060087867 2.43312219602 120 91 76 26 -0.964864893708 -0.216155254231 -0.149374170989
-2.05620089074 0.58335665294 1.86540051838 93 65 50 10 -0.867443409062 -0.182618015967 -0.462809455736
-2.51336615935 0.757096224811 2.37530273768 113 82 69 23 -0.930850800364 -0.276136944357 -0.239301432139
-2.05008045925 0.51790756015 1.95273823173 86 61 52 2 -0.620286909301 -0.156823456116 -0.768537932546
-2.51383591528 0.704600576721 2.37722563617 47 42 39 7 -0.544614908036 -0.209762253022 -0.812031033367
-2.59213314479 1.10438539045 1.96467412822 36 32 31 4 -0.477269345072 -0.349320782041 -0.806342956495
-2.5524897931 0.867503464638 2.20273135435 126 116 115 5 -0.497308572137 -0.264252759319 -0.826350206191
-2.4768475189 0.582022447867 2.56035149333 37 32 29 18 -0.825270919909 -0.188271689248 -0.532429976411
-2.47707530288 1.12935873661 2.58863895967 61 59 61 2 -0.434416249813 -0.301679351451 -0.848688453325
-2.55640216629 0.490616135525 2.127095716 207 202 199 7 -0.632504496183 -0.160178647651 -0.75781321125
-2.57970756517 0.990839870651 2.02356897364 110 88 76 34 -0.905890403418 -0.399013169199 0.141954456785
-2.55916350246 1.12829624182 2.11805743786 101 68 51 32 -0.896890973497 -0.438074658623 0.0606397158041
-2.51265879914 0.709124449639 1.9449478738 12 8 7 3 -0.546983993405 -0.231634757793 -0.804458731037
-2.56964525503 0.758479463633 2.0550097824 29 24 18 7 -0.574640241544 -0.245892994189 -0.780592869688
-2.54498797031 0.87380118383 2.33540877426 7 2 1 3 -0.426834328608 -0.25379518123 -0.867986441084
-2.56569099932 0.592385085968 2.08324908784 117 90 74 6 -0.549361528756 -0.191581358586 -0.813325576732
-2.4844620636 1.10359179582 2.53265133704 87 69 61 6 -0.540408005745 -0.307084984494 -0.7833632616
-2.04041051599 0.58544645751 1.85607815426 15 11 10 4 -0.633779738095 -0.180358448176 -0.752192843459
-2.57200667063 0.605161023638 2.05694363372 116 84 72 5 -0.579924402664 -0.197659101194 -0.790328138757
-2.52506534263 0.758325573682 2.29963667915 102 75 68 38 -0.920844209317 -0.331089342521 0.205975215587
-2.52268105629 0.888640297076 2.35245892759 5 3 3 3 -0.484803582577 -0.258675672074 -0.835495292026
-2.54734730527 0.844734365836 2.16871077909 88 67 54 3 -0.503366333996 -0.259176236687 -0.824287578541
-2.58085499609 1.10595758629 2.00846331117 24 23 18 7 -0.612883756466 -0.35374489718 -0.706567794893
-1.4600895724 1.1809904567 1.77540656008 14 10 9 3 0.776493802875 -0.388387908883 -0.496197749219
-2.5486078038 0.540093219106 2.20261827303 116 88 74 5 -0.577198582322 -0.170620242891 -0.798580321121
-2.4842536094 0.806446585677 2.53089455636 120 88 70 3 -0.475397487517 -0.225030221945 -0.850504925367
-2.57466517485 0.772607117433 2.04743600516 106 78 68 4 -0.95881068791 -0.281047234352 -0.0411645091338
-2.54549120797 0.915201524916 2.20387800635 21 23 22 16 -0.788668604609 -0.306528226164 -0.532956169558
-2.4964008825 0.537391112199 2.47081732622 32 29 25 6 -0.584305598054 -0.159177397071 -0.795769768429
-2.58371120312 1.02057187684 2.00221573118 32 27 26 4 -0.536888002934 -0.324830865373 -0.778611701175
-2.55506871837 1.10837253529 2.14466274582 126 90 74 30 -0.908347602541 -0.417438318897 -0.0254928004361
-2.30167427279 0.651783771649 1.90366065517 9 5 4 4 -0.667143005613 -0.209612702517 -0.714830556849
-2.57149164263 1.00366092212 2.05748688533 86 64 52 3 -0.504801190594 -0.313372016506 -0.804346776736
-2.22939471208 0.477629691598 2.089806101 129 102 90 4 -0.633074606998 -0.145892428367 -0.76021835108
-2.56043833186 0.734971923416 2.12857204818 79 71 71 5 -0.566900568947 -0.233012383107 -0.790144907119
-2.55732657151 0.746263097113 2.14247357722 36 29 26 22 -0.916616112586 -0.353535713624 0.186621009909
-2.55514843389 1.24328355998 2.15925495831 78 67 69 4 -0.511156558028 -0.370360389845 -0.775597933738
-2.49254447633 0.484151247989 2.13793037207 129 101 88 6 -0.616150382586 -0.154691175164 -0.772288382902
-2.58047578937 1.12477793532 2.00991571104 23 21 17 32 -0.8975746436 -0.434017260839 0.0773871853787
-2.58549710278 0.679739232267 2.00514975025 31 25 23 6 -0.610179668559 -0.225671231266 -0.759442734811
-2.48196871292 1.22684299745 2.58157039783 72 68 68 2 -0.430526300414 -0.32572629068 -0.841753816868
-1.97368672492 0.516874503353 1.93518707154 127 93 83 4 -0.708448765461 -0.154942069179 -0.688544335475
-2.58360034173 0.797303864454 2.01705909444 105 82 73 2 -0.486988506312 -0.255632218083 -0.835161280112
-2.04780481333 0.542412096451 1.90697344166 85 65 54 4 -0.67675836284 -0.165572074092 -0.717345109837
-2.58737603786 1.03538457789 1.98559491054 29 25 27 2 -0.479376513268 -0.327435154852 -0.814238526412
-2.58223365564 1.07321080957 2.00463947471 27 27 21 15 -0.804704457636 -0.36799056001 -0.465868740747
-2.58326330517 0.967906422946 2.00491126373 29 22 19 17 -0.836521720034 -0.336918557446 -0.432107969794
-2.48423390112 0.730370019653 2.57214392734 93 84 82 2 -0.446577699909 -0.201608803071 -0.871735194006
-2.4984092647 0.798676617985 2.44116913892 109 78 65 4 -0.509607585408 -0.229709774643 -0.829176415685
-2.58911050295 0.990780677921 1.98334506106 15 11 10 23 -0.904873437192 -0.36235189895 -0.223394637339
-2.57304189633 0.88525118629 2.19243938888 7 4 3 2 -0.464332958486 -0.268696478221 -0.843917712965
-2.57214523799 0.537646311349 2.0505216949 57 45 45 18 -0.885979918265 -0.19562746893 -0.420439624477
-2.57846079991 1.09800716715 2.02616545307 120 92 85 36 -0.874072266537 -0.441829498849 0.201951397167
-2.53614087118 1.12052656136 2.25439337371 106 74 62 17 -0.840081312677 -0.375845111308 -0.391157053364
-2.48588224511 0.497959657252 2.06354433761 90 83 80 4 -0.514083543505 -0.158591210531 -0.842951326139
-2.28523067348 0.53984704566 1.96077222979 96 86 84 2 -0.571874660496 -0.170141132102 -0.802503188685
-2.54186668084 0.686590461676 2.22476024056 30 28 28 3 -0.503175896883 -0.209931830169 -0.838297467178
-2.55012719789 1.23320039587 2.18583403424 36 33 32 30 -0.887626713612 -0.460157037793 -0.0193472957106
-2.49489820981 1.09629219229 2.46831675013 132 97 80 35 -0.879984535238 -0.451378625841 0.147934289044
-2.47479907384 0.604021867659 2.58597496837 75 71 70 5 -0.528720042093 -0.170470528289 -0.83150160317
-2.3397875442 1.21268791291 1.9212001515 99 89 87 5 -0.561054069075 -0.369119788483 -0.740924364105
-2.51976278558 0.642919647267 2.31940885714 108 77 61 24 -0.943281138193 -0.237776522114 -0.231695964272
-2.53894746072 0.697721634009 2.2373229398 80 71 70 34 -0.95247911641 -0.291384268812 0.0887622706486
-2.54123668947 0.92467939242 2.23919602537 22 20 17 2 -0.464824217738 -0.27522923495 -0.841538659144
-2.52353525594 0.487479564501 2.32881564244 91 86 83 6 -0.582249888925 -0.149482681418 -0.799149544705
-2.53604225785 0.514839047614 2.24602683897 60 55 54 4 -0.535182502248 -0.159045848177 -0.829628897438
-2.29525992317 0.723491986355 1.90404494559 10 6 3 10 -0.73402110278 -0.23431540191 -0.637423966526
-2.54553895798 0.947986720178 2.35871765447 26 19 19 18 -0.801407043674 -0.319207056552 -0.50581973607
-2.54900431736 0.906446791191 2.3416517541 17 14 9 7 -0.586015817302 -0.272504243275 -0.763103465638
-2.55143689465 0.90492145681 2.33701242211 17 14 9 2 -0.452023288825 -0.26365378489 -0.852151176771
-2.58150118454 0.825664303609 2.00814368316 41 33 34 4 -0.546627404541 -0.267293915878 -0.793569431833
-2.56746529924 0.529335437146 2.0915210145 84 77 72 19 -0.940991639599 -0.204384861464 -0.269743512635
-2.33301099861 0.97117558495 1.91388613079 10 6 5 2 -0.55027117212 -0.302035895206 -0.778444574225
-2.57901651216 1.12979719705 2.02521166316 104 80 73 3 -0.500505014412 -0.351352086111 -0.791230966364
-2.49366337864 1.13934475189 2.48252692334 89 64 57 16 -0.78624186117 -0.35691584383 -0.504415321106
-2.57931490319 1.06329700443 2.02410600011 99 82 73 2 -0.475258799472 -0.331597760523 -0.814967483241
-2.5845202109 1.20843034832 2.00215295812 28 21 19 4 -0.525673277402 -0.37669796673 -0.762736027265
-2.54386214768 0.870498273158 2.36631908979 43 33 32 3 -0.423905549912 -0.250906332795 -0.870258637945
-2.58235053182 1.16542650435 2.01845452256 115 87 76 2 -0.47002096096 -0.360109919584 -0.805854293328
-2.37359523884 1.12519324808 1.92300547217 39 25 16 8 -0.684525026221 -0.352044168856 -0.638349740857
-2.53521316392 0.694637719077 2.25641574701 68 63 63 2 -0.471994075359 -0.209266695101 -0.856404719246
-2.53623626793 0.693334780434 2.2548086708 68 63 63 28 -0.955125218815 -0.267102795252 -0.128030907018
-2.57868080497 1.19639366026 2.02431121724 96 73 66 4 -0.468587108892 -0.368239071068 -0.803010652432
-2.5854127288 0.984176339114 1.97280013314 42 38 37 14 -0.786297878421 -0.336557916877 -0.518135517966
-2.51905550953 0.724392411376 2.33873101024 29 25 24 4 -0.520386004086 -0.215303722157 -0.826342975995
-2.50432494715 0.754609530187 2.42522958597 92 72 64 5 -0.559301627149 -0.221756756309 -0.798752546725
-2.57053479002 0.544507673322 2.07524684731 81 74 72 27 -0.97090043702 -0.228817372315 0.0706749709731
-2.52900795241 0.699527985805 2.32669168373 65 60 57 2 -0.46488515638 -0.206743505825 -0.86089425261
-2.51097073413 1.17389935182 2.39231057404 113 78 59 5 -0.523084656095 -0.333821785479 -0.78418458165
-2.34686283803 0.741696278171 1.91554008143 8 6 4 5 -0.699883938517 -0.241016844819 -0.672364003438
-2.47866658325 0.704355139139 2.5811069689 80 76 75 8 -0.63740791803 -0.20650991876 -0.742337389256
-2.5939989677 0.689625607488 1.96490024776 47 43 42 2 -0.495508250839 -0.226600000568 -0.838524903085
-2.02999566064 0.663646050568 1.85072734402 20 16 15 4 -0.683253377507 -0.202816719652 -0.701448644132
-2.57628794811 0.545809895419 2.03332007621 56 49 45 4 -0.58483466861 -0.180524896153 -0.790809188275
-2.45929820377 0.495558799437 2.09808756192 56 51 56 3 -0.544428552775 -0.15624873037 -0.824126134267
-2.49276099879 1.25272037618 2.50560599639 38 34 31 14 -0.710006892702 -0.370066421636 -0.599116896685
-2.51401542458 1.23087640005 2.36605661347 52 46 45 23 -0.833622863438 -0.409253417432 -0.370923930036
-2.5594253581 0.724385877729 2.1315696438 43 37 37 29 -0.953247587524 -0.300028751767 0.0360802576604
-2.28279411891 0.579464670454 1.90984972032 87 78 76 4 -0.633508640758 -0.185045557065 -0.751282199906
-2.47978245446 1.19094363464 2.55668253102 30 24 21 25 -0.881767720878 -0.411009493044 -0.23142360088
-2.59057385168 0.756959732998 1.97349327338 27 23 22 16 -0.854047951889 -0.27221634184 -0.443283610243
-2.53660349585 0.915649192968 2.24640805885 29 18 12 3 -0.493315989514 -0.273501552253 -0.825733755762
-2.11524067229 0.849516872376 1.86715417443 41 24 16 2 -0.607225480354 -0.259733022664 -0.750876802775
-2.58863685221 0.712985737969 1.95861081516 18 14 12 2 -0.496810559909 -0.234043832223 -0.835704943243
-2.54081964769 0.590709973282 2.2076641044 135 100 83 3 -0.508562085813 -0.182482045879 -0.841465927894
-2.26936655722 0.815880519675 1.90177838116 31 19 17 3 -0.635227147212 -0.256891347666 -0.728349714725
-2.46934353881 1.10753927388 1.94268007249 39 21 11 10 -0.74306309297 -0.358506630352 -0.565093121405
-2.48236729568 0.755572110336 2.55189947029 15 11 7 7 -0.577623780715 -0.216538066434 -0.787059104348
-2.3523976785 0.816899926381 1.9203552872 48 31 23 5 -0.675101359951 -0.262247972557 -0.689539088581
-2.48315481325 0.921719536029 2.52380198895 98 66 53 19 -0.893155992379 -0.337271521127 0.297523602952
-1.9255808438 0.521532957382 1.9261581418 131 99 84 7 -0.939472041285 -0.15114146573 -0.307487464755
-1.82385163946 1.25164799332 1.82567197323 25 22 20 4 -0.284774142424 -0.384468508105 -0.87811596847
-2.08422749098 1.23781813703 1.86633871325 9 5 4 2 -0.537360566344 -0.37236855268 -0.756693651826
-2.18852351371 1.13466310251 1.8884037476 45 31 22 2 -0.255016411992 -0.374235979528 -0.891579531641
-2.18852351371 1.13466310251 1.8884037476 45 31 22 2 -0.255016411992 -0.374235979528 -0.891579531641
-1.64584070899 0.838803388052 1.78959732657 45 28 20 2 -0.696915675116 -0.238843270884 -0.67621182608
-2.5817874665 1.17910802234 1.99676008858 21 19 20 15 -0.891785867719 -0.4136674991 -0.183295298151
-2.53313825228 0.911506988597 2.35003857067 124 81 65 3 -0.535544606051 -0.26811053836 -0.800817528623
-2.35011987744 0.870299937954 1.91789313072 38 23 16 2 -0.372678763086 -0.282411722821 -0.883942395385
-2.35434499372 0.735353998115 1.9174137407 24 20 19 3 -0.530249806397 -0.243107359297 -0.812240084379
-2.3450082065 1.00752906492 1.92110318659 41 27 18 2 -0.428270542543 -0.318255642947 -0.845752734623
-2.00111275524 0.792597330418 1.8452144562 12 7 6 8 -0.842040086216 -0.236562695107 -0.484774777077
-1.77181777801 1.05089109157 1.81295538478 12 9 8 4 -0.696073941241 -0.299749484663 -0.652404257167
-1.46816794579 1.22749145841 1.7513120573 19 15 12 7 -0.802377840627 -0.331697360755 -0.496151853507
-1.58234970396 0.881844763645 1.77353013165 40 23 15 3 -0.723789801492 -0.253208159097 -0.641883129099
-1.58181971936 0.882102004199 1.77427936353 40 23 15 2 -0.636923829712 -0.255786186312 -0.727256118597
-2.38173717488 1.02068543233 1.92340568005 38 21 12 2 -0.448380258411 -0.322024790408 -0.833819631713
-2.35330904167 0.817061470572 1.92009410931 48 30 23 2 -0.464318623905 -0.261902552156 -0.846058667392
-2.1105301655 0.911707931217 1.87557176226 43 25 15 4 -0.711248842456 -0.283080613012 -0.643420896958
-2.51038661089 0.729335712514 1.94009652287 12 8 7 3 -0.425382975222 -0.236989258631 -0.873433120327
-2.01629924335 0.926521232793 1.85252007037 12 8 7 4 -0.621433074788 -0.28277504449 -0.730656696248
-1.82096318663 0.842031548947 1.8157583363 40 22 14 2 -0.616776220257 -0.250748871716 -0.746131421037
-1.93743000256 0.981270831319 1.84115999833 36 19 11 3 -0.688084325024 -0.294672942167 -0.663104681638
-2.54277867813 0.682345790711 1.95558160838 13 9 8 2 -0.448722686933 -0.224135643257 -0.865107602356
-2.1191622693 0.581393554448 1.87926057486 123 86 68 4 -0.809651396565 -0.188522671875 -0.555809156303
-2.46899251553 0.636398236805 1.94045632699 40 26 19 3 -0.438912687469 -0.207030237 -0.874353551915
-2.11317223437 0.945308716072 1.87203148252 34 19 12 3 -0.519988365573 -0.289259170547 -0.803704691988
-2.45600509898 0.778817178771 1.93805021906 40 26 17 2 -0.469022862331 -0.251811027969 -0.846527471973
-2.25225518957 1.15519259049 1.90060832247 52 34 24 12 -0.793687560638 -0.361521798762 -0.489246405309
-2.43825498226 0.68857998628 1.93064706935 18 13 10 2 -0.507859897571 -0.223658656782 -0.831898509246
-1.45521685392 0.732622856199 1.79225474072 29 25 24 5 0.961885417727 -0.243629383917 0.124181989262
-2.26766814359 1.21463310225 1.89997702775 10 6 5 5 -0.617332710334 -0.371964558531 -0.693211866567
-1.86385810641 0.502173218545 1.95579227646 118 86 70 3 -0.706212345607 -0.148486006435 -0.692254309344
-1.70407325507 1.20119962262 1.79347268298 33 22 16 3 -0.688267131326 -0.336118475937 -0.642894023981
-2.25772388526 0.909852088372 1.89679605589 43 26 18 2 -0.571455956479 -0.282756754668 -0.770380884689
-2.42058885971 0.819830674544 1.93592403519 36 20 13 4 -0.719647799383 -0.271568219923 -0.639028752695
-2.12204742788 0.971994128368 1.87660159052 47 30 22 8 -0.790346718968 -0.301126102966 -0.533549560894
-1.66461701484 1.12431275817 1.79072944324 52 34 24 4 -0.757667896678 -0.310942758758 -0.573806552001
-1.52269354866 1.09956245709 1.76453288721 47 30 17 2 -0.70376096342 -0.301128371463 -0.643461117913
-2.54979152413 0.696084644867 1.95580131577 9 5 4 2 -0.774623026573 -0.233926967721 -0.587569009118
-2.16908440028 0.943762302451 1.88453023781 53 33 22 2 -0.589334294892 -0.288653459733 -0.75456230296
-1.66048883837 0.64927659682 1.79054350616 34 19 12 3 -0.738244181744 -0.186536904929 -0.648227977813
-2.3116322893 1.13490328967 1.91479613363 30 22 19 7 -0.684778053312 -0.352331743889 -0.637919556019
-2.30037644337 1.19592405958 1.90128477799 13 9 8 2 -0.546017273259 -0.363573044675 -0.754771341857
-2.29913524715 0.655873807144 1.90267805646 11 7 6 3 -0.56374411575 -0.208814233867 -0.799117755836
-1.61453268748 0.741330254603 1.77832859698 8 7 5 4 -0.777031368246 -0.20930882439 -0.5936430483
-2.52930228758 0.607823965083 1.94891956275 9 5 4 5 -0.682426986856 -0.206719710924 -0.7011136632
-1.76687172323 0.501298709586 1.93494646453 29 21 19 4 -0.671629662499 -0.144520230276 -0.726655007202
-1.59881291763 0.546716117621 1.82757299524 109 79 61 3 -0.702878257945 -0.155690292396 -0.694062452061
-2.02982782717 0.684389022431 1.8507941212 20 16 15 4 -0.593120676945 -0.210301393277 -0.777162265274
-1.51144145593 0.752290077999 1.75383236938 13 12 7 4 -0.744244644335 -0.210218523093 -0.633962208595
-2.17437899296 0.603388361743 2.5551987826 38 34 33 5 -0.277892788844 -0.196907931092 0.940214265251
-2.36557771558 1.244250244 1.91509178147 18 14 13 2 -0.527389581388 -0.37903667082 -0.760389000195
-2.38435964747 0.67442389487 1.91950529921 25 14 10 2 -0.55165793625 -0.217114176638 -0.805316680366
-1.65130274544 1.24285429262 1.7835923337 22 18 17 9 -0.604075344329 -0.354048703182 -0.713962529933
-1.88557662706 1.03617259476 1.8316309019 42 28 19 3 -0.666948823735 -0.300408296062 -0.681860779174
-1.88557662706 1.03617259476 1.8316309019 42 28 19 3 -0.666948823735 -0.300408296062 -0.681860779174
-1.92754031896 1.13803051794 1.83097192746 43 26 18 6 -0.719059047063 -0.328476806528 -0.612419034984
-1.47562034984 1.26125326546 1.76015893542 15 14 12 2 -0.843734597554 -0.331582688239 -0.422095782673
-1.39230389146 0.532571038645 2.1280149879 18 13 10 2 0.875541002018 -0.181076847303 -0.447927593653
-1.82698750483 1.24325378009 1.817223755 11 10 8 4 -0.74547736131 -0.348974657118 -0.567873394749
-2.34599432421 0.925394411277 2.57949875772 119 76 57 12 0.0645584685476 -0.321727128356 0.944628953091
-2.53399389156 1.20249217652 2.26022676243 124 82 65 36 -0.839342556973 -0.479715114169 0.255690205701
-1.83240725625 0.695909516296 1.8192202767 13 9 8 11 -0.86297439644 -0.205116741199 -0.461738360512
-2.05518615633 0.989988939177 1.86128132009 14 10 9 12 -0.820937270535 -0.297920446786 -0.487140026311
